3.39481115 0.42905360 0.41528794
3.38343525 0.42521867 0.17689553
3.37774920 0.42330456 -0.05881460
3.36304259 0.42202559 -0.29291144
3.38809538 0.42278880 0.41437525
3.38905334 0.42052495 0.17715721
3.38344359 0.41802832 -0.05890187
3.36130261 0.41584620 -0.29269400
3.39518952 0.40563846 0.41498372
3.38377237 0.40188092 0.17676468
3.37807035 0.40000606 -0.05877097
3.36096120 0.39794466 -0.29247653
3.40328431 0.40059224 0.41589645
3.38198972 0.39568105 0.17663385
3.38621044 0.39498845 -0.05890187
3.36412406 0.39236993 -0.29269400
3.40293670 0.38189292 0.41559219
3.38656139 0.37765706 0.17676468
3.37836266 0.37554362 -0.05872735
3.37108207 0.37530795 -0.29312888
3.40106606 0.37627092 0.41528794
3.39211345 0.37288925 0.17702636
3.38646603 0.37047216 -0.05885824
3.36678123 0.36887455 -0.29269400
3.40052223 0.35819465 0.41498372
3.38657141 0.35433379 0.17663385
3.38084030 0.35253930 -0.05872735
3.36117506 0.35104293 -0.29204163
3.39127064 0.35122329 0.41376674
3.39215064 0.34894016 0.17689553
3.38890934 0.34741282 -0.05885824
3.37169123 0.34620699 -0.29291144
3.39800167 0.33395395 0.41437525
3.39144659 0.33092839 0.17676468
3.38570666 0.32917339 -0.05877097
3.36855817 0.32747072 -0.29247653
3.40104914 0.32826453 0.41467950
3.39698911 0.32549161 0.17702636
3.39125204 0.32374546 -0.05885824
3.37408233 0.32207099 -0.29291144
3.40030456 0.30963004 0.41437525
3.39870048 0.30710748 0.17702636
3.39295411 0.30539238 -0.05885824
3.37076211 0.30394596 -0.29247653
3.40078664 0.30428848 0.41437525
3.39420533 0.30132020 0.17676468
3.39348173 0.29947010 -0.05885824
3.37376809 0.29828513 -0.29269400
3.40233326 0.28647789 0.41437525
3.39573646 0.28354412 0.17676468
3.39495420 0.28229037 -0.05885824
3.37776542 0.28082579 -0.29291144
3.40530086 0.28074649 0.41467950
3.39622641 0.27761701 0.17676468
3.39544177 0.27636465 -0.05885824
3.37825036 0.27493006 -0.29291144
3.40676999 0.26231802 0.41467950
3.39767861 0.25923771 0.17676468
3.40187168 0.25837487 -0.05894550
3.37964344 0.25723788 -0.29291144
3.39975524 0.25639650 0.41376674
3.40555000 0.25446844 0.17715721
3.39982486 0.25224879 -0.05890187
3.37263680 0.25077480 -0.29225907
3.40105128 0.23859200 0.41376674
3.40434527 0.23645729 0.17702636
3.39856458 0.23486191 -0.05885824
3.38628459 0.23457853 -0.29334635
3.40393782 0.23282836 0.41407099
3.39977121 0.23017123 0.17676468
3.39647555 0.22875862 -0.05881460
3.38171959 0.22832574 -0.29291144
3.41253924 0.21548136 0.41498372
3.40092993 0.21236701 0.17676468
3.39762664 0.21097165 -0.05881460
3.38783979 0.21093230 -0.29334635
3.40795684 0.20921430 0.41437525
3.40378714 0.20658553 0.17689553
3.39798975 0.20504136 -0.05881460
3.38571715 0.20486528 -0.29312888
3.41643763 0.19179469 0.41528794
3.40731502 0.18890214 0.17702636
3.39402580 0.18696514 -0.05872735
3.38923001 0.18727575 -0.29334635
3.41676712 0.18583159 0.41528794
3.41511750 0.18336652 0.17741889
3.40433025 0.18158710 -0.05890187
3.39203835 0.18149656 -0.29356381
3.41521502 0.16781388 0.41498372
3.41104436 0.16523431 0.17715721
3.39774466 0.16338940 -0.05877097
3.38550830 0.16277240 -0.29291144
3.42045975 0.16209450 0.41559219
3.41880846 0.15964001 0.17754972
3.40301847 0.15769710 -0.05885824
3.39076257 0.15710057 -0.29334635
3.42376566 0.14369315 0.41589645
3.41712761 0.14103393 0.17741889
3.40132403 0.13917723 -0.05881460
3.38158560 0.13892215 -0.29247653
3.42646623 0.13841839 0.41620067
3.41485047 0.13556379 0.17728804
3.40905476 0.13354416 -0.05894550
3.39177656 0.13342497 -0.29334635
3.41970491 0.12020417 0.41528794
3.41800833 0.11777120 0.17741889
3.40469098 0.11611065 -0.05885824
3.39242887 0.11566392 -0.29334635
3.41990948 0.11423548 0.41528794
3.41820860 0.11180548 0.17741889
3.40488839 0.11016817 -0.05885824
3.39262557 0.10974283 -0.29334635
3.41055608 0.09543941 0.41407099
3.41876364 0.09330964 0.17741889
3.41542888 0.09202709 -0.05903276
3.38817453 0.09183598 -0.29291144
3.42310405 0.09042626 0.41559219
3.41141939 0.08773676 0.17702636
3.41058683 0.08593329 -0.05894550
3.38584042 0.08585586 -0.29269400
3.41608858 0.07233419 0.41467950
3.41183186 0.06987349 0.17702636
3.41597605 0.06877705 -0.05903276
3.40118313 0.06844732 -0.29399872
3.42117119 0.06647494 0.41528794
3.41444468 0.06396872 0.17715721
3.41359186 0.06276564 -0.05898913
3.39880705 0.06246191 -0.29378125
3.42644310 0.04803997 0.41589645
3.41723704 0.04553055 0.17728804
3.41888046 0.04436706 -0.05907639
3.40157795 0.04470110 -0.29399872
3.42651415 0.04265767 0.41589645
3.42229724 0.04022807 0.17754972
3.41645312 0.03836851 -0.05903276
3.40165067 0.03876417 -0.29399872
3.42917156 0.02473720 0.41620067
3.42495751 0.02232811 0.17768057
3.41160464 0.02103835 -0.05894550
3.39931297 0.02152731 -0.29378125
3.42499137 0.01635040 0.17768057
3.41413546 0.01509835 -0.05898913
3.39436436 0.01556481 -0.29334635
3.41916728 -0.00277553 -0.05907639
3.40436101 -0.00279539 -0.29421616
3.40684152 -0.00874016 -0.29443362
3.41671109 -0.02664247 -0.29530343
3.34519053 0.79952353 0.05942544
3.34901619 0.79426628 0.29807264
3.35387802 0.79541022 0.05955633
3.34511209 0.79271996 -0.17833477
3.35070276 0.77615947 0.29785475
3.34338450 0.77446234 0.05929455
3.35665011 0.77629310 -0.17872728
3.34399962 0.77215165 -0.41650492
3.35205221 0.77031022 0.29785475
3.34486508 0.76804203 0.05929455
3.33853102 0.76597798 -0.17768057
3.35374022 0.75161934 0.29763687
3.35127974 0.75106311 0.05933818
3.34736872 0.74957538 -0.17794225
3.33006310 0.74388599 -0.41407099
3.34775305 0.74414778 0.29698321
3.34770489 0.74413091 0.05925092
3.34623432 0.74319208 -0.17781141
3.33135653 0.73807287 -0.41407099
3.35634470 0.72824723 0.29741898
3.34654236 0.72611988 0.05916365
3.35496044 0.72671551 -0.17807308
3.33990097 0.72224820 -0.41467950
3.36004567 0.72291064 0.29763687
3.35037422 0.72021765 0.05920729
3.34401751 0.71824431 -0.17741889
3.33145046 0.71434236 -0.41346252
3.35903215 0.70370203 0.29720107
3.35165262 0.70215416 0.05916365
3.34773231 0.70072532 -0.17741889
3.33526659 0.69630712 -0.41346252
3.36025500 0.69783831 0.29720107
3.35532069 0.69681025 0.05920729
3.34895039 0.69488132 -0.17741889
3.34121609 0.69207108 -0.41407099
3.35886145 0.67983627 0.29676530
3.35635424 0.67932409 0.05916365
3.34997725 0.67742848 -0.17728804
3.33749604 0.67309952 -0.41315827
3.35760069 0.67348450 0.29654741
3.35998583 0.67395532 0.05920729
3.35605097 0.67255908 -0.17754972
3.34109926 0.66775835 -0.41346252
3.36352563 0.65637064 0.29676530
3.36346841 0.65635329 0.05920729
3.34983778 0.65248764 -0.17702636
3.33967757 0.64931095 -0.41285405
3.35488415 0.64861369 0.29589376
3.35981321 0.64894927 0.05912002
3.35097122 0.64664006 -0.17702636
3.34324265 0.64394909 -0.41315827
3.36568832 0.63182700 0.29654741
3.36562228 0.63180846 0.05916365
3.35185695 0.62862676 -0.17689553
3.35155630 0.62676054 -0.41376674
3.36433721 0.62549794 0.29632953
3.35934663 0.62456673 0.05903276
3.35294890 0.62277573 -0.17689553
3.34277630 0.61969143 -0.41254979
3.36991119 0.60890305 0.29654741
3.35754466 0.60666955 0.05894550
3.35370660 0.60476959 -0.17676468
3.34841800 0.60261846 -0.41285405
3.36361337 0.60170901 0.29589376
3.35870337 0.60022235 0.05894550
3.35229945 0.59847796 -0.17663385
3.35190797 0.59720737 -0.41315827
3.37418199 0.58477300 0.29654741
3.35687375 0.58177716 0.05885824
3.35538697 0.58091730 -0.17663385
3.34286213 0.57695985 -0.41163707
3.37028790 0.57804388 0.29611164
3.36281157 0.57675976 0.05894550
3.36377859 0.57632077 -0.17702636
3.35110259 0.57295859 -0.41254979
3.37317061 0.56097800 0.29611164
3.36322188 0.55932307 0.05890187
3.36675000 0.55870020 -0.17702636
3.34916043 0.55459648 -0.41194132
3.38151717 0.55629849 0.29676530
3.36182284 0.55246115 0.05885824
3.35786462 0.55121118 -0.17650300
3.35257196 0.54914999 -0.41224554
3.37955785 0.53721547 0.29632953
3.36220050 0.53446019 0.05881460
3.35823846 0.53323185 -0.17637217
3.35549402 0.53100288 -0.41224554
3.37803006 0.53093094 0.29611164
3.36312795 0.52859116 0.05881460
3.36409783 0.52814144 -0.17663385
3.35632396 0.52573144 -0.41224554
3.38067412 0.51382649 0.29611164
3.37070322 0.51231068 0.05890187
3.36672783 0.51110750 -0.17663385
3.35412359 0.50741112 -0.41163707
3.37910271 0.50755680 0.29589376
3.37159252 0.50642687 0.05890187
3.36761451 0.50523072 -0.17663385
3.35745835 0.50192177 -0.41194132
3.37924886 0.48950136 0.29567584
3.36924958 0.48805249 0.05881460
3.36041451 0.48558027 -0.17611049
3.35758424 0.48398274 -0.41163707
3.38009810 0.48360264 0.29567584
3.37265539 0.48193532 0.05885824
3.36372852 0.48006582 -0.17624132
3.35842371 0.47812191 -0.41163707
3.38266540 0.46530759 0.29567584
3.37760901 0.46460882 0.05890187
3.36866927 0.46278521 -0.17637217
3.35850263 0.45960909 -0.41133282
3.37360001 0.45806828 0.29480430
3.37098336 0.45770836 0.05877097
3.37194610 0.45723915 -0.17650300
3.35929966 0.45374671 -0.41133282
3.37834501 0.44130832 0.29502219
3.38317204 0.44192994 0.05894550
3.36934233 0.43893531 -0.17624132
3.36155319 0.43673807 -0.41133282
3.38158035 0.43572819 0.29524007
3.37409663 0.43416348 0.05877097
3.36762714 0.43273726 -0.17611049
3.36969471 0.43181238 -0.41224554
3.38636017 0.41772932 0.29545796
3.38128567 0.41710013 0.05885824
3.36984682 0.41509855 -0.17611049
3.36705589 0.41297299 -0.41163707
3.38955641 0.41211760 0.29567584
3.37952685 0.41089773 0.05881460
3.37800145 0.41011491 -0.17650300
3.36277270 0.40708986 -0.41102859
3.38665104 0.39438292 0.29524007
3.38404655 0.39407495 0.05885824
3.37762237 0.39213565 -0.17637217
3.37471890 0.39061260 -0.41224554
3.38733411 0.38847151 0.29524007
3.38231325 0.38729435 0.05881460
3.37830162 0.38624001 -0.17637217
3.37539554 0.38472202 -0.41224554
3.39681435 0.37094560 0.29589376
3.37932491 0.36903948 0.05872735
3.37531376 0.36800766 -0.17611049
3.37249327 0.36592129 -0.41163707
3.38507462 0.36369324 0.29480430
3.37996364 0.36314091 0.05872735
3.37098575 0.36158636 -0.17584880
3.37059641 0.36036095 -0.41133282
3.39182734 0.34705946 0.29524007
3.38921857 0.34678790 0.05885824
3.38270783 0.34552887 -0.17637217
3.37490582 0.34295717 -0.41163707
3.39490604 0.34138685 0.29545796
3.37738276 0.33962861 0.05864008
3.37585330 0.33888054 -0.17597964
3.37303019 0.33682117 -0.41133282
3.39664698 0.32360655 0.29545796
3.38657999 0.32264706 0.05877097
3.37763739 0.32061055 -0.17597964
3.37968874 0.31961992 -0.41194132
3.39224744 0.31721684 0.29502219
3.38221550 0.31568292 0.05868371
3.37570596 0.31448480 -0.17584880
3.38271189 0.31394869 -0.41224554
3.39143300 0.29864144 0.29480430
3.39129233 0.29862303 0.05881460
3.37233210 0.29637110 -0.17558713
3.37941694 0.29521286 -0.41163707
3.40435576 0.29378542 0.29589376
3.39180827 0.29270363 0.05881460
3.38030672 0.29112327 -0.17597964
3.38234901 0.29011479 -0.41194132
3.40083408 0.27615044 0.29545796
3.38826346 0.27513069 0.05872735
3.37929606 0.27322030 -0.17584880
3.37887478 0.27200553 -0.41133282
3.39882827 0.27001861 0.29524007
3.39376879 0.26901743 0.05881460
3.38474560 0.26771280 -0.17611049
3.38429189 0.26649469 -0.41194132
3.40520692 0.25199011 0.29567584
3.39762402 0.25142714 0.05885824
3.38361120 0.24980433 -0.17597964
3.38320947 0.24800006 -0.41163707
3.40315747 0.24586847 0.29545796
3.39805770 0.24549681 0.05885824
3.37906122 0.24354230 -0.17571796
3.37864423 0.24233319 -0.41102859
3.40932846 0.22897144 0.29589376
3.39177465 0.22779633 0.05872735
3.38025069 0.22643627 -0.17571796
3.38234305 0.22480255 -0.41133282
3.40475225 0.22269838 0.29545796
3.39216709 0.22187622 0.05872735
3.38811517 0.22101964 -0.17611049
3.38768291 0.21921660 -0.41194132
3.40338540 0.20472004 0.29524007
3.40076780 0.20455794 0.05885824
3.38427687 0.20238976 -0.17584880
3.38630724 0.20132993 -0.41163707
3.41368294 0.19935490 0.29611164
3.39616323 0.19774078 0.05877097
3.38960981 0.19676933 -0.17611049
3.38169861 0.19513631 -0.41102859
3.40973735 0.18062156 0.29567584
3.33547235 0.80714309 0.41650492
3.39964795 0.18008670 0.05881460
3.35619569 0.80972522 0.17911980
3.39557981 0.17927921 -0.17637217
3.38766098 0.17709307 -0.41163707
3.41253495 0.17479618 0.29589376
3.34893656 0.80423367 0.41802612
3.39995718 0.17415293 0.05881460
3.35760379 0.80386639 0.17911980
3.39838099 0.17347842 -0.17650300
3.38796496 0.17118023 -0.41163707
3.41088796 0.15740822 0.29567584
3.34813404 0.78613204 0.41741762
3.40828657 0.15728351 0.05894550
3.34461856 0.78285623 0.17820393
3.39924288 0.15568224 -0.17650300
3.33919573 0.78035581 -0.05925092
3.38630915 0.15391880 -0.41133282
3.36111641 0.78549689 -0.29834780
3.41364574 0.15156393 0.29589376
3.35191703 0.78085351 0.41772187
3.40608501 0.15063077 0.05890187
3.34598017 0.77701759 0.17820393
3.39452076 0.14953227 -0.17624132
3.35028982 0.77679789 -0.05942544
3.38657284 0.14800835 -0.41133282
3.41192722 0.13299659 0.29567584
3.34883595 0.76104712 0.41680917
3.40432930 0.13269861 0.05885824
3.34526634 0.75779319 0.17794225
3.40773106 0.13223365 -0.17689553
3.34225726 0.75588661 -0.05920729
3.39476252 0.12996373 -0.41224554
3.33494997 0.75482345 -0.29552090
3.41962028 0.12731524 0.29632953
3.35002708 0.75578582 0.41680917
3.40705347 0.12684834 0.05890187
3.34645295 0.75253749 0.17794225
3.40795660 0.12628584 -0.17689553
3.34357119 0.75005209 -0.05920729
3.39000320 0.12445183 -0.41163707
3.33869147 0.74955040 -0.29573834
3.41275311 0.10976943 0.29567584
3.34667063 0.73662490 0.41589645
3.40515351 0.10952318 0.05885824
3.35034728 0.73500532 0.17794225
3.40108514 0.10820621 -0.17650300
3.34976578 0.73365730 -0.05925092
3.39060831 0.10670019 -0.41163707
3.34257007 0.73205888 -0.29573834
3.41791844 0.10396153 0.29611164
3.34795094 0.73078275 0.41589645
3.40285897 0.10291140 0.05881460
3.34918618 0.72862279 0.17781141
3.40875530 0.10249093 -0.17689553
3.35348344 0.72834355 -0.05929455
3.39326978 0.10085462 -0.41194132
3.33654356 0.72462845 -0.29508600
3.41594124 0.08540654 0.29589376
3.34942937 0.71213865 0.41559219
3.40834880 0.08521489 0.05890187
3.34575415 0.70892900 0.17741889
3.40674901 0.08458084 -0.17676468
3.35004020 0.70862716 -0.05916365
3.39128494 0.08243498 -0.41163707
3.33298469 0.70559126 -0.29443362
3.42604423 0.07967047 0.29676530
3.35297108 0.70739198 0.41589645
3.41349030 0.07937948 0.05898913
3.35663342 0.70574033 0.17794225
3.40189981 0.07852241 -0.17650300
3.35371757 0.70329547 -0.05920729
3.39141035 0.07710787 -0.41163707
3.33664751 0.70028788 -0.29465106
3.42640352 0.06232876 0.29676530
3.36148882 0.69083178 0.41650492
3.41384816 0.06210132 0.05898913
3.35294747 0.68664306 0.17754972
3.40724611 0.06139005 -0.17676468
3.35723448 0.68631184 -0.05920729
3.39424896 0.05939151 -0.41194132
3.34014940 0.68339062 -0.29465106
3.42401719 0.05630891 0.29654741
3.36025858 0.68446535 0.41620067
3.41145229 0.05610324 0.05894550
3.36147881 0.68228960 0.17794225
3.40984416 0.05548241 -0.17689553
3.34863043 0.67845279 -0.05903276
3.39434743 0.05346735 -0.41194132
3.34133697 0.67755997 -0.29465106
3.42426491 0.03838011 0.29654741
3.35892987 0.66589016 0.41559219
3.40919995 0.03821361 0.05890187
3.36010790 0.66370565 0.17768057
3.41508770 0.03708407 -0.17715721
3.36194396 0.66285747 -0.05920729
3.39954329 0.03574330 -0.41254979
3.34251142 0.65898675 -0.29443362
3.41934609 0.03235925 0.29611164
3.35765243 0.65954518 0.41528794
3.41426587 0.03171198 0.05898913
3.35636234 0.65687460 0.17741889
3.41015387 0.03108087 -0.17689553
3.35328531 0.65505856 -0.05903276
3.39463782 0.02976922 -0.41194132
3.34121275 0.65267116 -0.29421616
3.42196155 0.01386712 0.29632953
3.36117196 0.64136893 0.41528794
3.41188574 0.01382585 0.05894550
3.36722350 0.64011389 0.17781141
3.41526318 0.01324156 -0.17715721
3.36169076 0.63784456 -0.05912002
3.39723039 0.01140905 -0.41224554
3.34947658 0.63610369 -0.29465106
3.36217523 0.63608843 0.41528794
3.41440392 0.00787533 0.05898913
3.36086631 0.63342685 0.17741889
3.42027402 0.00728862 -0.17741889
3.35297489 0.63011652 -0.05894550
3.39724398 0.00607268 -0.41224554
3.34813499 0.62979311 -0.29443362
3.37033939 0.61937904 0.41589645
3.40940094 -0.00938997 0.05890187
3.36168194 0.61536807 0.17728804
3.42026520 -0.01061991 -0.17741889
3.36103773 0.61404264 -0.05903276
3.39971066 -0.01172521 -0.41254979
3.34403825 0.61090118 -0.29378125
3.36165261 0.61170572 0.41467950
3.42437434 -0.01601406 0.05916365
3.36029506 0.60905135 0.17715721
3.35964537 0.60772741 -0.05898913
3.39968514 -0.01765881 -0.41254979
3.34999967 0.60595697 -0.29421616
3.36979938 0.59437716 0.41528794
3.37337422 0.59260255 0.17768057
3.36780739 0.59041101 -0.05907639
3.34331679 0.58667314 -0.29334635
3.36339760 0.58779174 0.41437525
3.36938262 0.58644015 0.17741889
3.35898376 0.58280969 -0.05890187
3.34188223 0.58040756 -0.29312888
3.36153674 0.56933773 0.41376674
3.37240696 0.56879008 0.17741889
3.35942602 0.56538284 -0.05885824
3.35469699 0.56456816 -0.29399872
3.36986589 0.56471008 0.41467950
3.37831903 0.56373173 0.17768057
3.36040783 0.55951864 -0.05885824
3.34830880 0.55747521 -0.29334635
3.37287164 0.54646921 0.41467950
3.37885523 0.54504418 0.17754972
3.37078786 0.54253048 -0.05898913
3.35855675 0.54113442 -0.29399872
3.36147809 0.53918892 0.41315827
3.37724233 0.53933907 0.17741889
3.37172937 0.53664649 -0.05898913
3.35949612 0.53527182 -0.29399872
3.37160993 0.52273130 0.41407099
3.37261963 0.52049625 0.17702636
3.37440252 0.51957393 -0.05898913
3.35970140 0.51787829 -0.29378125
3.37251735 0.51684594 0.41407099
3.36858749 0.51384956 0.17676468
3.36789227 0.51254553 -0.05885824
3.36060047 0.51201373 -0.29378125
3.37026882 0.49844781 0.41346252
3.37370157 0.49657160 0.17689553
3.37052965 0.49490431 -0.05885824
3.35100317 0.49199817 -0.29269400
3.37358832 0.49292690 0.41376674
3.37209272 0.49032000 0.17676468
3.36396885 0.48793447 -0.05872735
3.35924959 0.48723125 -0.29334635
3.38111949 0.47536445 0.41437525
3.37222457 0.47171900 0.17663385
3.36903453 0.47007534 -0.05877097
3.35435629 0.46859196 -0.29269400
3.38186216 0.47005281 0.41437525
3.37790632 0.46711197 0.17689553
3.37232542 0.46453896 -0.05881460
3.36503601 0.46411121 -0.29356381
3.38181758 0.45200700 0.41407099
3.37783146 0.44908658 0.17676468
3.37215590 0.44713229 -0.05877097
3.36248279 0.44582424 -0.29312888
3.38014174 0.44577616 0.41376674
3.37613559 0.44286248 0.17663385
3.37045360 0.44091862 -0.05872735
3.36325598 0.43995497 -0.29312888
