3.42293525 0.43807447 0.66341907
3.40950441 0.43153539 0.41711339
3.43784642 0.43274060 0.17977400
3.45702696 0.43396080 -0.06021080
3.46928382 0.43550348 -0.30226198
3.39212179 0.42747030 0.65722334
3.41025233 0.42558396 0.41711339
3.43611932 0.42642903 0.17964315
3.45777917 0.42792645 -0.06021080
3.47498107 0.43006602 -0.30269691
3.49190021 0.43462768 -0.55121452
3.38700533 0.40881127 0.65579355
3.41250515 0.40712661 0.41711339
3.43589759 0.40753436 0.17951232
3.45756197 0.40891510 -0.06016717
3.47223949 0.41127288 -0.30226198
3.49167657 0.41604286 -0.55082381
3.38771367 0.40289921 0.65579355
3.41560411 0.40205911 0.41741762
3.43653345 0.40213674 0.17951232
3.46075273 0.40317237 -0.06021080
3.47542548 0.40550393 -0.30247945
3.39702368 0.38658977 0.65722334
3.42012835 0.38445011 0.41772187
3.44603443 0.38497907 0.17990485
3.45778155 0.38509101 -0.06012354
3.46760154 0.38618553 -0.30160964
3.39288235 0.37951499 0.65627015
3.41586208 0.37792793 0.41711339
3.43925738 0.37813562 0.17951232
3.45844817 0.37905547 -0.06012354
3.46827030 0.38013285 -0.30160964
3.41538954 0.35917807 0.41680917
3.43876982 0.35925937 0.17938149
3.47039175 0.36138657 -0.06029806
3.47268987 0.36222953 -0.30182710
3.42335296 0.35458961 0.41772187
3.44181323 0.35411608 0.17951232
3.46355844 0.35455564 -0.06016717
3.48074841 0.35693988 -0.30247945
3.42269325 0.33641413 0.41741762
3.44113564 0.33584425 0.17938149
3.46530890 0.33702052 -0.06016717
3.47507501 0.33858344 -0.30182710
3.42080593 0.33019823 0.41711339
3.44171667 0.32983780 0.17938149
3.46340370 0.33073100 -0.06012354
3.48061848 0.33299866 -0.30226198
3.42248797 0.31228247 0.41711339
3.44339657 0.31181258 0.17938149
3.46508789 0.31259224 -0.06012354
3.47492886 0.31348085 -0.30160964
3.41808510 0.30585971 0.41650492
3.44642186 0.30602634 0.17951232
3.47060704 0.30699104 -0.06021080
3.47795105 0.30763820 -0.30182710
3.41968989 0.28736168 0.41650492
3.45051479 0.28758562 0.17964315
3.46972680 0.28799883 -0.06016717
3.48199606 0.28963324 -0.30204454
3.42013717 0.28198969 0.41650492
3.44847465 0.28195849 0.17951232
3.47520638 0.28235394 -0.06025443
3.48001432 0.28335020 -0.30182710
3.42404056 0.26427239 0.41680917
3.44990373 0.26389858 0.17951232
3.46163797 0.26360238 -0.05999264
3.48144984 0.26512507 -0.30182710
3.42202234 0.25810596 0.41650492
3.44537997 0.25749823 0.17925064
3.46957040 0.25812644 -0.06012354
3.48190713 0.25904840 -0.30182710
3.42089343 0.23941080 0.41620067
3.44672275 0.23885325 0.17925064
3.47590280 0.23970103 -0.06021080
3.48570037 0.24098875 -0.30204454
3.42873287 0.23395656 0.41711339
3.45460629 0.23335183 0.17964315
3.47382236 0.23346321 -0.06016717
3.47866178 0.23439261 -0.30139217
3.42987323 0.21659926 0.41711339
3.44826865 0.21538679 0.17925064
3.47246504 0.21571943 -0.06012354
3.48232698 0.21633293 -0.30160964
3.42529249 0.21030194 0.41650492
3.44863939 0.20936809 0.17925064
3.46784663 0.20935071 -0.06003627
3.48518491 0.21040817 -0.30182710
3.42638016 0.19176632 0.41650492
3.45221424 0.19084731 0.17938149
3.47142386 0.19072527 -0.06007991
3.49618530 0.19271825 -0.30269691
3.42670965 0.18578587 0.41650492
3.45503497 0.18495850 0.17951232
3.47674346 0.18493831 -0.06016717
3.43011403 0.16796586 0.41680917
3.45096898 0.16661814 0.17925064
3.47766423 0.16673167 -0.06016717
3.43037343 0.16257764 0.41680917
3.45372033 0.16131695 0.17938149
3.47545290 0.16054311 -0.06012354
3.43117762 0.14461412 0.41680917
3.45701170 0.14333791 0.17951232
3.47871852 0.14305629 -0.06016717
3.43142486 0.13862535 0.41680917
3.45725656 0.13730407 0.17951232
3.48146009 0.13708617 -0.06021080
3.43212461 0.12005762 0.41680917
3.46543407 0.11886320 0.17990485
3.48215079 0.11824774 -0.06021080
3.43230915 0.11466631 0.41680917
3.45563579 0.11307976 0.17938149
3.48235202 0.11217007 -0.06021080
3.43534279 0.09676647 0.41711339
3.45368505 0.09491273 0.17925064
3.47787809 0.09440074 -0.06012354
3.43550634 0.09077052 0.41711339
3.45883679 0.08901983 0.17951232
3.48053646 0.08839729 -0.06016717
3.43842793 0.07223684 0.41741762
3.45926762 0.07030452 0.17951232
3.48346233 0.06961779 -0.06021080
3.46186996 0.06492073 0.17964315
3.48857713 0.06363562 -0.06029806
3.46216249 0.04679362 0.17964315
3.48385572 0.04590519 -0.06021080
3.46473551 0.04078362 0.17977400
3.48892951 0.03988834 -0.06029806
3.45990825 0.02260262 0.17951232
3.49159026 0.02163865 -0.06034169
3.45744610 0.01654866 0.17938149
3.48662329 0.01551585 -0.06025443
3.45998168 -0.00215634 0.17951232
3.48415637 -0.00334961 -0.06021080
3.46247029 -0.00759344 0.17964315
3.46487975 -0.02573795 0.17977400
3.46482968 -0.03178527 0.17977400
3.46959925 -0.05059747 0.18003568
3.46700954 -0.05661551 0.17990485
3.47915912 -0.07441335 0.18055904
3.47652769 -0.08043105 0.18042821
3.48103285 -0.09937555 0.18068987
3.47338605 -0.10462775 0.18029736
3.47528553 -0.12289780 0.18042821
3.47506595 -0.12896313 0.18042821
3.47933197 -0.14736141 0.18068987
3.47906947 -0.15343377 0.18068987
3.48566937 -0.17261565 0.18108241
3.48788762 -0.17821485 0.18121324
3.47942829 -0.19606331 0.18082072
3.39487934 0.91163880 -0.18239079
3.40765595 0.90932685 0.06095253
3.43024206 0.91469961 -0.18422256
3.40511394 0.88958055 0.06082163
3.43514109 0.89612699 -0.18422256
3.40681577 0.88304156 0.06082163
3.42944813 0.88825607 -0.18383004
3.40412307 0.86335206 0.06069074
3.43647265 0.87089944 -0.18396087
3.41289759 0.85923624 0.06082163
3.43556571 0.86429256 -0.18383004
3.40992069 0.84016103 0.06069074
3.43277025 0.84450698 -0.18343751
3.41395593 0.83420491 0.06073437
3.43423915 0.83851427 -0.18343751
3.41584563 0.81573892 0.06069074
3.43615365 0.81994313 -0.18330668
3.40753365 0.80747575 0.06051622
3.43515015 0.81337082 -0.18317585
3.42131901 0.79246926 0.06069074
3.44179416 0.79593450 -0.18330668
3.41065145 0.78310913 0.06047259
3.44074464 0.78936929 -0.18317585
3.41714430 0.76578557 0.06051622
3.44726682 0.77188700 -0.18330668
3.41603518 0.75927943 0.06047259
3.44373393 0.76478934 -0.18304500
3.40746164 0.73930848 0.30199465
3.41739154 0.74145091 0.06042895
3.44756079 0.74734938 -0.18304500
3.39900661 0.73127025 0.30112308
3.40890431 0.73338777 0.06025443
3.43665433 0.73871446 -0.18239079
3.39791322 0.71244377 0.30068731
3.41759133 0.71655208 0.06034169
3.44060063 0.72010964 -0.18239079
3.40159011 0.70701766 0.30090520
3.40916991 0.70796186 0.06016717
3.42962837 0.71157432 -0.18173660
3.40780687 0.68909532 0.30112308
3.41773033 0.69108999 0.06025443
3.43330717 0.69360715 -0.18173660
3.40411997 0.68217045 0.30068731
3.41648006 0.68463403 0.06021080
3.44185734 0.68908012 -0.18212913
3.40752912 0.66493201 0.30068731
3.42726254 0.66876513 0.06034169
3.44541836 0.67104930 -0.18212913
3.40379357 0.65804106 0.30025154
3.41626763 0.65982068 0.06012354
3.43432617 0.66267657 -0.18147492
3.40730429 0.63961518 0.30025154
3.42213249 0.64238405 0.06016717
3.44511080 0.64606190 -0.18186744
3.40351772 0.63275963 0.29981574
3.42079091 0.63595474 0.06012354
3.44132376 0.63913906 -0.18160577
3.40667701 0.61552483 0.29981574
3.42888570 0.61951864 0.06021080
3.45690894 0.62331998 -0.18225996
3.40529442 0.60914099 0.29959786
3.42514729 0.61205786 0.06012354
3.45553374 0.61684823 -0.18212913
3.45940804 0.61629802 -0.42654485
3.41590238 0.59197944 0.30025154
3.42830491 0.59411550 0.06012354
3.45625567 0.59832221 -0.18199828
3.46024632 0.59715122 -0.42624059
3.41447544 0.58559704 0.30003363
3.42933655 0.58813113 0.06012354
3.45237279 0.59144849 -0.18173660
3.46617556 0.59194380 -0.42684910
3.40766692 0.56608391 0.29916209
3.43483520 0.57057542 0.06016717
3.44803262 0.57214195 -0.18134408
3.47412419 0.57459408 -0.42745754
3.41110778 0.56053805 0.29937997
3.42842531 0.56336772 0.06003627
3.44902611 0.56612313 -0.18134408
3.47012472 0.56833678 -0.42684910
3.41636062 0.54365581 0.29959786
3.43123269 0.54600781 0.06003627
3.45194292 0.54805642 -0.18134408
3.47060180 0.54977268 -0.42654485
3.42510009 0.53892064 0.54301071
3.42222524 0.53846377 0.30003363
3.42980528 0.53903258 0.05999264
3.44796157 0.54125917 -0.18108241
3.47400784 0.54409713 -0.42684910
3.38890123 0.51447332 0.53676027
3.42262578 0.51956755 0.29981574
3.43505216 0.52144063 0.06003627
3.45321679 0.52357125 -0.18121324
3.47935486 0.52566242 -0.42715335
3.38970542 0.50914943 0.53676027
3.42599058 0.51396126 0.30003363
3.43101263 0.51470560 0.05994901
3.46153307 0.51864922 -0.18160577
3.47526717 0.51946539 -0.42654485
3.39476895 0.49174675 0.53715092
3.42854810 0.49661425 0.30003363
3.43852186 0.49804711 0.06003627
3.45925879 0.49980634 -0.18134408
3.47302723 0.50055665 -0.42593637
3.39317727 0.48547259 0.53676027
3.42694402 0.49027815 0.29981574
3.44194651 0.49179688 0.06007991
3.45518255 0.49306539 -0.18108241
3.47143865 0.49414593 -0.42563212
3.39575434 0.46710673 0.53676027
3.43201423 0.47206753 0.30003363
3.43952131 0.47308975 0.05999264
3.45771670 0.47496736 -0.18108241
3.47652006 0.47569156 -0.42593637
3.39656425 0.46117932 0.53676027
3.42049241 0.46440837 0.29894418
3.44034171 0.46708596 0.05999264
3.46348858 0.46959990 -0.18134408
3.47242618 0.46896163 -0.42532787
3.39885497 0.44398192 0.53676027
3.43267798 0.44837460 0.29981574
3.44018316 0.44934452 0.05994901
3.46342421 0.45113769 -0.18121324
3.47967744 0.45201683 -0.42593637
3.40207410 0.43836334 0.53715092
3.42357421 0.44111520 0.29894418
3.43855977 0.44242141 0.05990538
3.46420622 0.44509223 -0.18121324
3.48538375 0.44657093 -0.42654485
3.40194488 0.41964906 0.53676027
3.42838311 0.42288908 0.29916209
3.43586755 0.42380196 0.05981812
3.46153331 0.42633998 -0.18095157
3.47789669 0.42650402 -0.42532787
3.39769721 0.41371062 0.53597891
3.42417097 0.41630638 0.29872632
3.43660188 0.41780460 0.05981812
3.46227193 0.42029783 -0.18095157
3.48595285 0.42193085 -0.42624059
3.39981699 0.39591470 0.53597891
3.42623401 0.39896983 0.29872632
3.44363856 0.40098050 0.05990538
3.46435475 0.40276837 -0.18095157
3.48564959 0.40338889 -0.42593637
3.40786314 0.39082024 0.53715092
3.42692518 0.39298934 0.29872632
3.44433308 0.39496964 0.05990538
3.46009159 0.39615607 -0.18068987
3.48388267 0.39702502 -0.42563212
3.40249801 0.37217006 0.53597891
3.43636346 0.37584889 0.29937997
3.45132399 0.37747061 0.05999264
3.46714830 0.37796789 -0.18095157
3.48591352 0.37877810 -0.42563212
3.40805292 0.36675668 0.53676027
3.43453813 0.36958566 0.29916209
3.44707108 0.37031260 0.05990538
3.46532035 0.37165114 -0.18082072
3.48410177 0.37243104 -0.42532787
3.41244435 0.34856164 0.53715092
3.43896508 0.35124940 0.29937997
3.45144987 0.35251141 0.05994901
3.46721864 0.35350177 -0.18082072
3.41287827 1.00099945 -0.06147610
3.48853469 0.35382393 -0.42563212
3.40315938 0.34221825 0.53558832
3.43709469 0.34499937 0.29916209
3.44957232 0.34623867 0.05990538
3.47031474 0.34769729 -0.18095157
3.41222167 0.99433893 -0.06143247
3.49402452 0.34883407 -0.42624059
3.41227937 0.32509312 0.53676027
3.42887902 0.32665905 0.29829052
3.45376921 0.32901016 0.05994901
3.47457337 0.32975662 -0.18108241
3.40760088 0.97429448 -0.06125794
3.49333310 0.33030245 -0.42593637
3.41038299 0.31890854 0.53636956
3.43440366 0.32113501 0.29872632
3.45190549 0.32214785 0.05990538
3.47514367 0.32369184 -0.18108241
3.41169953 0.96903163 -0.06130157
3.49390388 0.32420495 -0.42593637
3.40959835 0.30023682 0.53597891
3.43609118 0.30254853 0.29872632
3.45603538 0.30428728 0.05994901
3.47430348 0.30527452 -0.18095157
3.41207838 0.94921249 -0.06121431
3.49313474 0.30508190 -0.42563212
3.41252613 0.29509202 0.53636956
3.43909502 0.29676363 0.29894418
3.45656109 0.29825491 0.05994901
3.47731853 0.29942307 -0.18108241
3.41613817 0.94392461 -0.06125794
3.49608231 0.29980516 -0.42593637
3.41156292 0.27702165 0.53597891
3.43310571 0.27875260 0.29829052
3.45304322 0.28035411 0.05986175
3.48127818 0.28201923 -0.18121324
3.41363645 0.92465204 -0.06112705
3.41450286 0.27126110 0.53636956
3.43358707 0.27276030 0.29829052
3.45601892 0.27452356 0.05990538
3.47927594 0.27574697 -0.18108241
3.41524506 0.91869271 -0.06112705
3.41833925 0.25356045 0.53676027
3.44241953 0.25532690 0.29894418
3.45990205 0.25660771 0.05994901
3.47573757 0.25655350 -0.18082072
3.42000842 0.90079802 -0.06112705
3.41631341 0.24741696 0.53636956
3.43789196 0.24896137 0.29850841
3.46288157 0.25014344 0.05999264
3.47617984 0.25048682 -0.18082072
3.41432309 0.89292103 -0.06099616
3.42006612 0.22909303 0.53676027
3.44415832 0.23068713 0.29894418
3.45666146 0.23151146 0.05986175
3.47993493 0.23244724 -0.18095157
3.42878771 0.87692457 -0.06117068
3.42534995 0.22404008 0.53754157
3.44455552 0.22467561 0.29894418
3.46454358 0.22596204 0.05999264
3.48780942 0.22685528 -0.18134408
3.42546916 0.86970246 -0.06108342
3.44067669 0.20694207 0.29850841
3.46564269 0.20842360 0.05999264
3.47648835 0.20785198 -0.18068987
3.42982721 0.85235351 -0.06108342
3.45097804 0.20151184 0.29937997
3.46603656 0.20176965 0.05999264
3.48183084 0.20207061 -0.18095157
3.42160535 0.84395909 -0.06090889
3.44206929 0.18231601 0.29850841
3.46454930 0.18348803 0.05994901
3.48533416 0.18396734 -0.18108241
3.42855072 0.82602268 -0.06095253
3.44984436 0.17668620 0.29916209
3.46736050 0.17756744 0.05999264
3.39886570 0.81380296 0.18134408
3.48066330 0.17763226 -0.18082072
3.43241763 0.82062185 -0.06099616
3.45069456 0.15922278 0.29916209
3.46821523 0.16001534 0.05999264
3.40780163 0.79773390 0.18160577
3.48401165 0.16012608 -0.18095157
3.43166041 0.80209428 -0.06090889
3.45096707 0.15319994 0.29916209
3.46599197 0.15385245 0.05994901
3.40675783 0.79121691 0.18147492
3.48678017 0.15415400 -0.18108241
3.42818642 0.79496801 -0.06082163
3.45669937 0.13532078 0.29959786
3.46425200 0.13560615 0.05990538
3.41085362 0.77336848 0.18147492
3.48007870 0.13500033 -0.18068987
3.43230176 0.77700728 -0.06082163
3.45693040 0.12928751 0.29959786
3.45951033 0.12877184 0.05981812
3.40489340 0.76576126 0.18108241
3.48779392 0.12919939 -0.18108241
3.43852925 0.77211720 -0.06090889
3.45508981 0.11050367 0.29937997
3.46763206 0.11089174 0.05994901
3.41386247 0.74840349 0.18134408
3.49091792 0.11101363 -0.18121324
3.44021511 0.75296414 -0.06086526
3.44715238 0.75511020 -0.30508891
3.46025610 0.10462102 0.29981574
3.46782064 0.10483941 0.05994901
3.41259503 0.74250609 0.18121324
3.48611522 0.10477341 -0.18095157
3.44396639 0.74749213 -0.06090889
3.44359922 0.74802905 -0.30465397
3.45576191 0.08698326 0.29937997
3.46330881 0.08716291 0.05986175
3.41643572 0.72462767 0.18121324
3.48162436 0.08639768 -0.18068987
3.44037127 0.72848815 -0.06077800
3.44746852 0.72998822 -0.30465397
3.45839834 0.08100862 0.29959786
3.46596861 0.08057038 0.05990538
3.41525292 0.71814686 0.18108241
3.48676181 0.08043338 -0.18095157
3.43919206 0.72196579 -0.06073437
3.44873738 0.72397017 -0.30465397
3.45629597 0.06225232 0.29937997
3.47634006 0.06259609 0.06007991
3.41419816 0.69865072 0.18082072
3.42835760 0.70032662 -0.06047259
3.45248079 0.70590276 -0.30465397
3.46137953 0.05629809 0.29981574
3.47394466 0.05648939 0.06003627
3.41773725 0.69378668 0.18095157
3.43692231 0.69583952 -0.06060348
3.44882727 0.69888031 -0.30421910
3.45663953 0.03872480 0.29937997
3.47668576 0.03893213 0.06007991
3.42377162 0.67636913 0.18108241
3.43549681 0.67746133 -0.06051622
3.45243907 0.68081284 -0.30421910
3.45421171 0.03266960 0.29916209
3.47175503 0.03221368 0.05999264
3.42494702 0.67039257 0.18108241
3.42931628 0.67001659 -0.06038532
3.44384766 0.67286313 -0.30334926
3.45931888 0.01399752 0.29959786
3.47687531 0.01405271 0.06007991
3.42116785 0.65044338 0.18068987
3.43780160 0.65239102 -0.06047259
3.45221567 0.65575796 -0.30378416
3.45933795 0.00795985 0.29959786
3.47689438 0.00798440 0.06007991
3.41973281 0.64460301 0.18055904
3.44139075 0.64685488 -0.06051622
3.45335507 0.64973170 -0.30378416
3.46431470 -0.00956598 0.30003363
3.39717889 0.62434858 0.41924307
3.47689033 -0.00961378 0.06007991
3.42306113 0.62668860 0.18055904
3.44462085 0.62942821 -0.06051622
3.45659924 0.63224447 -0.30378416
3.46180224 -0.01559972 0.29981574
3.40070415 0.61886597 0.41954732
3.47936797 -0.01569473 0.06012354
3.42169380 0.62026477 0.18042821
3.44325495 0.62296706 -0.06047259
3.45524740 0.62576354 -0.30356672
3.45918298 -0.03369974 0.29959786
3.40389800 0.60105151 0.41954732
3.47923803 -0.03391236 0.06012354
3.42243624 0.60190463 0.18029736
3.45385385 0.60623580 -0.06060348
3.45367765 0.60619229 -0.30313182
3.45911884 -0.03973710 0.29959786
3.39761043 0.59381831 0.41863459
3.47666717 -0.04056141 0.06007991
3.42348123 0.59593052 0.18029736
3.44752002 0.59891361 -0.06047259
3.45718336 0.60059309 -0.30334926
3.46632338 -0.05858245 0.30025154
3.39832759 0.57500964 0.41833037
3.47640681 -0.05876455 0.06007991
3.42419410 0.57698095 0.18016651
3.45563912 0.58108753 -0.06055985
3.45782518 0.58206648 -0.30313182
3.47368574 -0.06477567 0.30090520
3.40167332 0.57008421 0.41863459
3.47379994 -0.06478395 0.06003627
3.42263436 0.57118732 0.18003568
3.45664835 0.57505542 -0.06055985
3.46129179 0.57644296 -0.30334926
3.40706015 0.55266595 0.41893885
3.48342276 -0.08260807 0.06021080
3.43297052 0.55446267 0.18042821
3.45457983 0.55675060 -0.06047259
3.46180463 0.55791241 -0.30313182
3.40312076 0.54592609 0.41833037
3.48075962 -0.08923017 0.06016717
3.43146825 0.54807317 0.18029736
3.45307803 0.55032367 -0.06042895
3.45293713 0.55028880 -0.30226198
3.41092801 0.52827156 0.41893885
3.49773312 -0.10800368 0.06047259
3.42944932 0.52873182 0.18003568
3.45353532 0.53124952 -0.06038532
3.45577121 0.53220183 -0.30226198
3.40694022 0.52156007 0.41833037
3.43283463 0.52312493 0.18016651
3.45692778 0.52560008 -0.06042895
3.45177126 0.52541351 -0.30182710
3.40462780 0.50357664 0.41772187
3.43790793 0.50611001 0.18029736
3.45954370 0.50809634 -0.06042895
3.46177745 0.50903249 -0.30247945
3.41041160 0.49835789 0.41833037
3.42890549 0.49865872 0.17977400
3.45053244 0.50060898 -0.06025443
3.46512461 0.50335103 -0.30269691
3.40560341 0.47944662 0.41741762
3.43394136 0.48104790 0.17990485
3.45063066 0.48218611 -0.06021080
3.46039891 0.48355189 -0.30204454
3.41135001 0.47419184 0.41802612
3.43724823 0.47539911 0.18003568
3.45889497 0.47719753 -0.06034169
3.47110462 0.47888604 -0.30291435
3.41140652 0.45539618 0.41772187
3.44224453 0.45712683 0.18016651
3.45894814 0.45814469 -0.06029806
3.46369028 0.45938215 -0.30204454
3.41211772 0.45003697 0.41772187
3.44048333 0.45139116 0.18003568
3.46222091 0.45243418 -0.06034169
3.46448708 0.45333621 -0.30204454
3.49857211 0.46029612 -0.55277711
