3.51804590 -0.20646875 0.30526298
3.49338961 -0.20501432 0.06047259
3.47917151 -0.20478143 -0.18082072
3.45320272 -0.20504697 -0.41985154
3.50773692 -0.21200216 0.30439141
3.49053144 -0.21095894 0.06042895
3.47382498 -0.21054859 -0.18055904
3.44293308 -0.21046251 -0.41863459
3.50906396 -0.23053025 0.30460933
3.48688507 -0.22906713 0.06038532
3.46765280 -0.22900882 -0.18029736
3.43683195 -0.22815521 -0.41802612
3.51362586 -0.23699228 0.30504510
3.48643899 -0.23576105 0.06038532
3.46226597 -0.23472020 -0.18003568
3.43395305 -0.23398317 -0.41772187
3.50732422 -0.25563446 0.30460933
3.47767782 -0.25346345 0.06025443
3.45601034 -0.25247872 -0.17977400
3.43016195 -0.25237566 -0.41741762
3.49942255 -0.26119533 0.30395564
3.47723007 -0.25953278 0.06025443
3.45556426 -0.25851020 -0.17977400
3.42728710 -0.25757608 -0.41711339
3.51046801 -0.27990055 0.30504510
3.47836351 -0.27732924 0.06029806
3.45167446 -0.27639920 -0.17964315
3.43083835 -0.27591830 -0.41772187
3.50004578 -0.28521255 0.30417356
3.47533345 -0.28380188 0.06025443
3.45616364 -0.28283310 -0.17990485
3.42045951 -0.28108734 -0.41650492
3.50093222 -0.30436239 0.30439141
3.47878027 -0.30243045 0.06034169
3.44966102 -0.30048952 -0.17964315
3.41888857 -0.29958963 -0.41650492
3.50039577 -0.31047219 0.30439141
3.47824717 -0.30850163 0.06034169
3.45410466 -0.30695459 -0.17990485
3.41594219 -0.30473772 -0.41620067
3.48886156 -0.32724947 0.30351987
3.46419835 -0.32492858 0.06012354
3.44250846 -0.32409441 -0.17938149
3.40688896 -0.32191488 -0.41528794
3.49076414 -0.33357644 0.30373776
3.46854401 -0.33205786 0.06021080
3.44442248 -0.33034196 -0.17951232
3.40632200 -0.32786053 -0.41528794
3.48395300 -0.35195497 0.30330199
3.45432401 -0.34895152 0.05999264
3.43271041 -0.34736139 -0.17898896
3.40202951 -0.34603313 -0.41498372
3.48085594 -0.35777909 0.30308411
3.45619607 -0.35523683 0.06003627
3.42961574 -0.35309502 -0.17885813
3.40148187 -0.35137656 -0.41498372
3.46909642 -0.37431848 0.30221254
3.44441319 -0.37164748 0.05986175
3.42282081 -0.36991000 -0.17859644
3.39712882 -0.36891252 -0.41467950
3.47091365 -0.38064545 0.30243042
3.44375944 -0.37765858 0.05986175
3.41472554 -0.37506148 -0.17820393
3.38908076 -0.37402034 -0.41376674
3.46639895 -0.39852801 0.30221254
3.43180251 -0.39453730 0.05968722
3.40775466 -0.39236182 -0.17794225
3.38707614 -0.39176029 -0.41376674
3.45827770 -0.40370703 0.30155888
3.43607378 -0.40110874 0.05977449
3.41202402 -0.39889145 -0.17820393
3.38885117 -0.39796203 -0.41407099
3.45357084 -0.42210856 0.30134100
3.42144847 -0.41817057 0.05955633
3.41229367 -0.41765106 -0.17833477
3.38418603 -0.41598746 -0.41376674
3.45282865 -0.42813554 0.30134100
3.42071319 -0.42414150 0.05955633
3.39669538 -0.42175189 -0.17754972
3.37614179 -0.42037883 -0.41285405
3.45061755 -0.44560632 0.30134100
3.42100167 -0.44177133 0.05959997
3.39691639 -0.43985307 -0.17768057
3.36897302 -0.43740860 -0.41224554
3.45477295 -0.45227736 0.30177677
3.42014742 -0.44833833 0.05959997
3.39861846 -0.44610745 -0.17781141
3.37804484 -0.44458869 -0.41346252
3.44734073 -0.47028682 0.30134100
3.42022967 -0.46657920 0.05964360
3.39376283 -0.46355712 -0.17768057
3.36329842 -0.46116662 -0.41194132
3.44404745 -0.47596049 0.30112308
3.41940999 -0.47254789 0.05964360
3.38552976 -0.46844891 -0.17728804
3.36257005 -0.46644911 -0.41194132
3.44405937 -0.49374107 0.30134100
3.40955186 -0.48878074 0.05951270
3.38550162 -0.48652551 -0.17741889
3.36253715 -0.48440418 -0.41224554
3.44565701 -0.50011039 0.30155888
3.41850066 -0.49676898 0.05968722
3.37970686 -0.49171194 -0.17715721
3.35432124 -0.48919371 -0.41133282
3.43797565 -0.51800090 0.30112308
3.40349531 -0.51279247 0.05946907
3.37461758 -0.50902748 -0.17702636
3.35162544 -0.50733513 -0.41133282
3.42721891 -0.52249366 0.30025154
3.40012431 -0.51835376 0.05942544
3.37125587 -0.51453841 -0.17689553
3.34837151 -0.51222253 -0.41102859
3.42207050 -0.53944445 0.30003363
3.39498854 -0.53516608 0.05938181
3.36860847 -0.53159523 -0.17689553
3.34809422 -0.53013694 -0.41133282
3.42604256 -0.54620320 0.30046943
3.38911295 -0.54030085 0.05929455
3.36521029 -0.53707886 -0.17676468
3.34226394 -0.53519225 -0.41072437
3.41330719 -0.56250906 0.29959786
3.38623738 -0.55803865 0.05929455
3.35732937 -0.55446213 -0.17650300
3.34431148 -0.55349797 -0.41133282
3.41232014 -0.56846553 0.29959786
3.38269448 -0.56412613 0.05925092
3.36866784 -0.56238329 -0.17715721
3.33844614 -0.55851239 -0.41072437
3.39937782 -0.58522391 0.29872632
3.38215756 -0.58225560 0.05929455
3.36567712 -0.58001387 -0.17715721
3.33537579 -0.57656687 -0.41072437
3.40325832 -0.59201247 0.29916209
3.38359833 -0.58858746 0.05933818
3.36465955 -0.58588719 -0.17715721
3.33935428 -0.58266115 -0.41133282
3.40021825 -0.60923022 0.29916209
3.38057590 -0.60570568 0.05933818
3.35663176 -0.60261130 -0.17689553
3.32893181 -0.59881580 -0.41042012
3.39424872 -0.61427397 0.29872632
3.59546089 0.01988378 0.43658477
3.37694788 -0.61174798 0.05929455
3.57727933 0.01728068 0.18566179
3.35803103 -0.60891563 -0.17702636
3.55411196 0.01590456 -0.06143247
3.32544041 -0.60418004 -0.41011587
3.52885318 0.01574697 -0.30508891
3.38353157 -0.63125515 0.29807264
3.59303474 0.00042680 0.43628055
3.36878419 -0.62850147 0.05920729
3.56733418 -0.00208139 0.18513843
3.35234308 -0.62603015 -0.17689553
3.54914665 -0.00332692 -0.06134520
3.31968403 -0.62170523 -0.40981162
3.51643467 -0.00273671 -0.30400163
3.38976622 -0.63854682 0.29872632
3.59303093 -0.00521712 0.43628055
3.36768198 -0.63438022 0.05920729
3.56982303 -0.00768712 0.18526928
3.34879184 -0.63141614 -0.17676468
3.54163694 -0.00951087 -0.06121431
3.32114148 -0.62738103 -0.41011587
3.51393390 -0.00887100 -0.30378416
3.38404584 -0.65522093 0.29850841
3.58799124 -0.02400317 0.43567204
3.36688185 -0.65189385 0.05925092
3.56723738 -0.02636323 0.18513843
3.35034132 -0.64989525 -0.17702636
3.54404283 -0.02745265 -0.06125794
3.31537533 -0.64428711 -0.40981162
3.51632977 -0.02728579 -0.30400163
3.38289714 -0.66112620 0.29850841
3.57553720 -0.03017658 0.43415084
3.36317134 -0.65787536 0.05920729
3.55969644 -0.03253037 0.18474592
3.33450341 -0.65285528 -0.17624132
3.54149032 -0.03361762 -0.06121431
3.30937648 -0.64911449 -0.40920314
3.50382471 -0.03332075 -0.30291435
3.37194657 -0.67794293 0.29785475
3.58028412 -0.04958393 0.43475935
3.35968065 -0.67547578 0.05920729
3.55697179 -0.05175649 0.18461508
3.33103919 -0.67030567 -0.17624132
3.53625727 -0.05271028 -0.06112705
3.30338383 -0.66651821 -0.40889892
3.50360227 -0.05166619 -0.30291435
3.37319851 -0.68432355 0.29807264
3.57026768 -0.05569057 0.43354237
3.34869862 -0.67934513 0.05903276
3.54938722 -0.05785208 0.18422256
3.32986403 -0.67611837 -0.17624132
3.52866197 -0.05876696 -0.06099616
3.30707812 -0.67327553 -0.40950739
3.50350690 -0.05778105 -0.30291435
3.36956954 -0.70197612 0.29807264
3.56496525 -0.07428660 0.43293390
3.34998941 -0.69789183 0.05912002
3.54653978 -0.07638521 0.18409172
3.32627845 -0.69354415 -0.17624132
3.52080846 -0.07708768 -0.06086526
3.30350733 -0.69058204 -0.40950739
3.49070597 -0.07587022 -0.30182710
3.37077618 -0.70836955 0.29829052
3.56484413 -0.07988634 0.43293390
3.35121226 -0.70425302 0.05916365
3.54891109 -0.08201046 0.18422256
3.33239150 -0.70089430 -0.17663385
3.52816582 -0.08340004 -0.06099616
3.30484629 -0.69628322 -0.40981162
3.49056864 -0.08196253 -0.30182710
3.36471295 -0.72489560 0.29807264
3.56437683 -0.09855063 0.43293390
3.33783150 -0.71909475 0.05898913
3.54094601 -0.10038871 0.18383004
3.32623577 -0.71780491 -0.17650300
3.51770377 -0.10098261 -0.06082163
3.29145503 -0.71147513 -0.40859467
3.49258089 -0.10030614 -0.30204454
3.35857606 -0.72970676 0.29763687
3.56171918 -0.10470177 0.43262964
3.33400273 -0.72496909 0.05894550
3.54326129 -0.10664056 0.18396087
3.31522155 -0.72148019 -0.17597964
3.51252508 -0.10697631 -0.06073437
3.29505682 -0.71827853 -0.40920314
3.48493218 -0.10618395 -0.30139217
3.36187029 -0.74949747 0.29829052
3.56110024 -0.12397090 0.43262964
3.32772160 -0.74187058 0.05890187
3.53015661 -0.12538287 0.18330668
3.32114339 -0.74100876 -0.17650300
3.50689840 -0.12580651 -0.06064711
3.28143692 -0.73392385 -0.40798619
3.48432851 -0.12442946 -0.30139217
3.54354167 -0.12895527 0.43049997
3.32642174 -0.74767745 0.05890187
3.52995515 -0.13092786 0.18330668
3.31010389 -0.74460697 -0.17597964
3.49917984 -0.13165483 -0.06051622
3.28270078 -0.73962426 -0.40829045
3.48659468 -0.13060053 -0.30160964
3.54777694 -0.14770740 0.43110847
3.34207988 -0.76899922 0.05925092
3.52922153 -0.14940879 0.18330668
3.50596070 -0.14967410 -0.06064711
3.48586321 -0.14885442 -0.30160964
3.54503465 -0.15379487 0.43080422
3.51897812 -0.15514132 0.18278332
3.49820256 -0.15546978 -0.06051622
3.48310995 -0.15483084 -0.30139217
3.53671479 -0.17261975 0.42989150
3.53055549 -0.17477953 0.18343751
3.49980712 -0.17451574 -0.06055985
3.47727633 -0.17282544 -0.30095726
3.53396082 -0.17805333 0.42958724
3.53027678 -0.18032511 0.18343751
3.50698662 -0.18100056 -0.06069074
3.47199464 -0.17864478 -0.30052236
3.53297997 -0.19655459 0.42958724
3.52928400 -0.19880703 0.18343751
3.50852108 -0.19888686 -0.06073437
3.45609117 -0.19599521 -0.29921761
3.52272177 -0.20216471 0.42837030
3.51896167 -0.20440035 0.18291415
3.49569082 -0.20429714 -0.06051622
3.45823026 -0.20216899 -0.29943508
3.52405334 -0.22137377 0.42867455
3.53275490 -0.22436681 0.18369921
3.50201845 -0.22367582 -0.06064711
3.45463848 -0.22011830 -0.29921761
3.52118468 -0.22736739 0.42837030
3.53235793 -0.23053227 0.18369921
3.48915029 -0.22898546 -0.06042895
3.45424914 -0.22614744 -0.29921761
3.51251912 -0.24529216 0.42745754
3.51864934 -0.24816234 0.18304500
3.48541045 -0.24707791 -0.06038532
3.44804859 -0.24388582 -0.29878271
3.51460481 -0.25098282 0.42776179
3.51327443 -0.25333646 0.18278332
3.47749352 -0.25262719 -0.06025443
3.44264913 -0.24954990 -0.29834780
3.50829387 -0.26900876 0.42715335
3.49696350 -0.27059221 0.18199828
3.47118568 -0.26984411 -0.06016717
3.44382524 -0.26716077 -0.29856527
3.50287032 -0.27474985 0.42654485
3.49648595 -0.27669513 0.18199828
3.46323347 -0.27531764 -0.06003627
3.43838787 -0.27278364 -0.29813036
3.49891090 -0.29288322 0.42624059
3.48254919 -0.29396510 0.18134408
3.46672654 -0.29386297 -0.06012354
3.44430757 -0.29200435 -0.29878271
3.49592209 -0.29878148 0.42593637
3.47208023 -0.29919857 0.18082072
3.45624590 -0.29906425 -0.05994901
3.43138480 -0.29695815 -0.29769543
3.48931098 -0.31724888 0.42532787
3.47041059 -0.31797984 0.18082072
3.46204519 -0.31843686 -0.06007991
3.43474412 -0.31536955 -0.29813036
3.48633718 -0.32250413 0.42502365
3.46742058 -0.32320231 0.18068987
3.45401740 -0.32378873 -0.05994901
3.42178798 -0.32022005 -0.29704309
3.48707080 -0.34099233 0.42532787
3.46816587 -0.34159464 0.18082072
3.44487095 -0.34053904 -0.05981812
3.42012358 -0.33753511 -0.29704309
3.48400092 -0.34683532 0.42502365
3.46259546 -0.34715563 0.18055904
3.44427133 -0.34655097 -0.05981812
3.41457224 -0.34301257 -0.29660815
3.48207331 -0.36568040 0.42502365
3.46066666 -0.36588490 0.18055904
3.44483185 -0.36544147 -0.05986175
3.41266656 -0.36148208 -0.29660815
3.47409129 -0.37037015 0.42411092
3.47250080 -0.37263611 0.18121324
3.43921757 -0.37092379 -0.05977449
3.40460086 -0.36664766 -0.29595581
3.46470523 -0.38773713 0.42319819
3.45561481 -0.38915613 0.18042821
3.42984366 -0.38749444 -0.05964360
3.40263438 -0.38446903 -0.29595581
3.46648932 -0.39406061 0.42350245
3.45989156 -0.39574763 0.18068987
3.42916226 -0.39348006 -0.05964360
3.40443301 -0.39068782 -0.29617327
3.45937753 -0.41222951 0.42289397
3.45026231 -0.41357994 0.18029736
3.41953635 -0.41114241 -0.05951270
3.39739418 -0.40792075 -0.29573834
3.45626187 -0.41736874 0.42258972
3.45456576 -0.41959462 0.18055904
3.42129540 -0.41740945 -0.05955633
3.39667702 -0.41384965 -0.29573834
3.44664216 -0.43453845 0.42167699
3.44736695 -0.43705538 0.18029736
3.40921855 -0.43347281 -0.05938181
3.39206791 -0.43072605 -0.29552090
3.44834018 -0.44086474 0.42198125
3.44907570 -0.44338655 0.18042821
3.41093636 -0.43973869 -0.05942544
3.38636971 -0.43601614 -0.29508600
3.44352436 -0.45858976 0.42167699
3.43433237 -0.45979962 0.17977400
3.40115380 -0.45660433 -0.05929455
3.38396120 -0.45433170 -0.29508600
3.44025946 -0.46427056 0.42137274
3.43599892 -0.46612528 0.17990485
3.40530610 -0.46320698 -0.05938181
3.38069487 -0.45990473 -0.29486853
3.44015479 -0.48321918 0.42167699
3.42848134 -0.48401746 0.17964315
3.40027428 -0.48127759 -0.05933818
3.36344171 -0.47552767 -0.29356381
3.44184875 -0.48896813 0.42198125
3.42771697 -0.48940226 0.17964315
3.40190434 -0.48756278 -0.05938181
3.36753821 -0.48209655 -0.29399872
3.43187547 -0.50590694 0.42106855
3.41522717 -0.50589275 0.17911980
3.39939308 -0.50477511 -0.05938181
3.36496806 -0.49972224 -0.29399872
3.43589640 -0.51262170 0.42167699
3.41680837 -0.51221961 0.17925064
3.39356208 -0.50997102 -0.05929455
3.35916376 -0.50486076 -0.29356381
3.42816734 -0.53045177 0.42106855
3.40905213 -0.52993822 0.17898896
3.38581252 -0.52756125 -0.05920729
3.35401297 -0.52206260 -0.29334635
3.42242575 -0.53507596 0.42046005
3.40574861 -0.53490841 0.17885813
3.38241696 -0.53308398 -0.05916365
3.36293960 -0.52945179 -0.29421616
3.41467643 -0.55220252 0.41985154
3.39797163 -0.55193949 0.17859644
3.38214326 -0.55059534 -0.05920729
3.36021662 -0.54646623 -0.29421616
3.42595482 -0.56014723 0.42137274
3.39946723 -0.55827051 0.17872728
3.37377620 -0.55528951 -0.05907639
3.34696746 -0.55032629 -0.29312888
3.42052770 -0.57766771 0.42106855
3.40634537 -0.57771909 0.17925064
3.37328696 -0.57336247 -0.05912002
3.34885263 -0.56925511 -0.29356381
3.41462111 -0.58280832 0.42046005
3.39794850 -0.58240795 0.17885813
3.36981726 -0.57882923 -0.05907639
3.33557844 -0.57300735 -0.29247653
3.40897346 -0.60084707 0.42015579
3.39966512 -0.60164762 0.17911980
3.36417437 -0.59661990 -0.05903276
3.33498549 -0.59089571 -0.29269400
3.41046929 -0.60663247 0.42046005
3.39134145 -0.60568005 0.17872728
3.35820603 -0.60161567 -0.05894550
3.34130549 -0.59802186 -0.29334635
3.39748073 -0.62270480 0.41924307
3.38075566 -0.62208313 0.17833477
3.36987042 -0.62130487 -0.05920729
3.33333588 -0.61403024 -0.29291144
3.40371013 -0.62997866 0.42015579
3.38457513 -0.62888831 0.17859644
3.36386514 -0.62627703 -0.05912002
3.32980990 -0.61939490 -0.29269400
3.39293790 -0.64700055 0.41924307
3.37131238 -0.64532691 0.17807308
3.36042738 -0.64446795 -0.05912002
3.31907010 -0.63600558 -0.29204163
3.39435458 -0.65279472 0.41954732
3.37519836 -0.65156174 0.17833477
3.35684276 -0.64986032 -0.05907639
3.31795502 -0.64179742 -0.29204163
3.39089036 -0.67055851 0.41954732
3.36929083 -0.66874242 0.17820393
3.34615374 -0.66538966 -0.05894550
3.32187915 -0.66060877 -0.29269400
3.38484669 -0.67551088 0.41893885
3.36322117 -0.67364776 0.17794225
3.34008455 -0.67025179 -0.05885824
3.31583619 -0.66543204 -0.29225907
3.37871051 -0.69331908 0.41863459
3.36197352 -0.69233495 0.17807308
3.33885789 -0.68881530 -0.05890187
3.31230640 -0.68278456 -0.29225907
3.37761736 -0.69862550 0.41863459
3.35599113 -0.69660676 0.17781141
3.33520293 -0.69413561 -0.05885824
3.30867076 -0.68806076 -0.29204163
3.37876916 -0.71732521 0.41924307
3.35718274 -0.71520293 0.17807308
3.32920146 -0.71048915 -0.05881460
3.30027270 -0.70376635 -0.29160672
3.37751198 -0.72322124 0.41924307
3.34860492 -0.71949762 0.17768057
3.32551169 -0.71577591 -0.05877097
3.29416847 -0.70848459 -0.29117179
3.37367916 -0.74089587 0.41924307
3.34966922 -0.73808885 0.17794225
3.29271960 -0.72683084 -0.29138926
3.32775593 -0.74059403 -0.05890187
3.29387760 -0.73311442 -0.29160672
3.29728079 -0.75200248 -0.29225907
3.59131122 0.01508507 0.31114599
3.58137012 0.00879791 0.31027445
3.55438137 0.00873999 0.06143247
3.53261828 0.00808165 -0.18330668
3.50890803 0.00620910 -0.42593637
3.58136702 -0.00995414 0.31027445
3.55937719 -0.00988731 0.06151973
3.53261256 -0.01041512 -0.18330668
3.50641108 -0.01215354 -0.42563212
3.57885385 -0.01619218 0.31005654
3.55685520 -0.01608693 0.06147610
3.52759576 -0.01655453 -0.18304500
3.49397779 -0.01820190 -0.42411092
3.57871985 -0.03493071 0.31005654
3.54672384 -0.03460731 0.06130157
3.52246165 -0.03558716 -0.18278332
3.49135327 -0.03646871 -0.42380667
3.56869221 -0.04105673 0.30918500
3.55165005 -0.04147755 0.06138884
3.51740170 -0.04167309 -0.18252164
3.49376535 -0.04259382 -0.42411092
3.56592751 -0.06032105 0.30896711
3.54638553 -0.05998603 0.06130157
3.51214242 -0.06000150 -0.18225996
3.48604083 -0.06136109 -0.42319819
3.56083703 -0.06644905 0.30853134
3.55127382 -0.06627152 0.06138884
3.51952124 -0.06627633 -0.18265249
3.48842120 -0.06688580 -0.42350245
3.55547571 -0.08435032 0.30809554
3.54339623 -0.08406331 0.06125794
3.50664663 -0.08439635 -0.18199828
3.48554254 -0.08508821 -0.42319819
3.55532289 -0.09055565 0.30809554
3.55072474 -0.09106228 0.06138884
3.50399828 -0.09045067 -0.18186744
3.47794700 -0.09097272 -0.42228550
3.54731297 -0.10955568 0.30744189
3.54770088 -0.10957398 0.06134520
3.50597167 -0.10887510 -0.18199828
3.47244334 -0.10962945 -0.42167699
3.54711652 -0.11574675 0.30744189
3.54750419 -0.11576571 0.06134520
3.50827193 -0.11507722 -0.18212913
3.47224689 -0.11568984 -0.42167699
3.55395126 -0.13398430 0.30809554
3.54187751 -0.13352866 0.06125794
3.50013685 -0.13315600 -0.18173660
3.46665788 -0.13306980 -0.42106855
3.55371189 -0.14018689 0.30809554
3.53412151 -0.14002739 0.06112705
3.49491000 -0.13906343 -0.18147492
3.46146154 -0.13891830 -0.42046005
3.54046202 -0.15884729 0.30700612
3.52584887 -0.15818982 0.06099616
3.49163985 -0.15724707 -0.18134408
3.45570159 -0.15741588 -0.41985154
3.53769135 -0.16490901 0.30678821
3.52057362 -0.16410786 0.06090889
3.48138547 -0.16286874 -0.18082072
3.45542145 -0.16344698 -0.41985154
3.52434421 -0.18277825 0.30569878
3.51966619 -0.18253919 0.06090889
3.48048472 -0.18109491 -0.18082072
3.44956255 -0.18127400 -0.41924307
3.52899337 -0.18919848 0.30613452
3.50686240 -0.18800601 0.06069074
3.47268486 -0.18676288 -0.18042821
3.44679594 -0.18655686 -0.41893885
