3.26927900 0.41301709 0.39977169
3.32647204 0.41798210 0.17388621
3.32351112 0.41701058 -0.28943217
3.26007628 0.40663892 0.39855474
3.29244423 0.40840602 0.17205445
3.31895471 0.40997297 -0.05776746
3.30199218 0.40842715 -0.28747508
3.24491620 0.38747999 0.39642507
3.25239873 0.38609925 0.16983017
3.28624082 0.38900730 -0.05715663
3.27441120 0.38757825 -0.28486562
3.23819542 0.38093582 0.39551234
3.24562979 0.37954181 0.16943765
3.26209068 0.38034183 -0.05672032
3.26271605 0.38040340 -0.28377834
3.23034716 0.36228985 0.39429539
3.23771262 0.36085576 0.16891429
3.24174547 0.36017126 -0.05632764
3.23743987 0.36024669 -0.28138635
3.21611571 0.35555810 0.39246994
3.22090673 0.35383663 0.16799842
3.22497845 0.35258672 -0.05602222
3.22073603 0.35267362 -0.27986416
3.21053123 0.33792400 0.39155722
3.21278429 0.33591467 0.16747504
3.20932078 0.33442107 -0.05571680
3.21510839 0.33502024 -0.27921182
3.20864820 0.33206111 0.39125296
3.21833205 0.33082443 0.16773674
3.21238613 0.32907748 -0.05576044
3.20330238 0.32812178 -0.27812454
3.20792866 0.31445029 0.39094871
3.21262145 0.31267074 0.16734421
3.20168138 0.31046814 -0.05554228
3.21489048 0.31232223 -0.27899435
3.20100999 0.30868578 0.39003602
3.21559334 0.30786541 0.16747504
3.22709870 0.30728412 -0.05597859
3.21543074 0.30671072 -0.27899435
3.20258260 0.29192117 0.39003602
3.23456407 0.29262358 0.16839093
3.22861266 0.29094645 -0.05597859
3.21198177 0.28997719 -0.27855942
3.22899938 0.29321232 -0.50746113
3.18578815 0.28475991 0.38790634
3.21517777 0.28518492 0.16734421
3.20752192 0.28392452 -0.27812454
3.21229172 0.28601864 -0.50472653
3.18970776 0.26828682 0.38821056
3.20418882 0.26729107 0.16669002
3.21312976 0.26692626 -0.05567317
3.20901108 0.26656610 -0.27812454
3.19406199 0.26751822 -0.50160128
3.18275309 0.26209772 0.38729784
3.20465064 0.26169831 0.16669002
3.20611739 0.26069957 -0.05554228
3.19457936 0.25973272 -0.27681980
3.16991687 0.25988975 -0.49769473
3.15691233 0.24274154 0.38395122
3.17117238 0.24164991 0.16485825
3.19003582 0.24200061 -0.05523686
3.16609812 0.24069399 -0.27421033
3.14907789 0.24155660 -0.49417883
3.13749671 0.23626286 0.38151729
3.14167523 0.23439600 0.16328818
3.15306544 0.23360825 -0.05458239
3.14664602 0.23366344 -0.27247071
3.13472247 0.23493114 -0.49183491
3.12879062 0.21912387 0.38030034
3.12791777 0.21688515 0.16250314
3.11929965 0.21518685 -0.05397156
3.14281964 0.21738300 -0.27203578
3.13590956 0.21851462 -0.49183491
3.10688925 0.21210881 0.37756217
3.11334753 0.21039370 0.16171810
3.11717653 0.20957100 -0.05392793
3.11337876 0.20984386 -0.26942632
3.11657882 0.21167341 -0.48870963
3.10056281 0.19481808 0.37664947
3.10696554 0.19307038 0.16132557
3.10828614 0.19207118 -0.05375341
3.10204124 0.19220749 -0.26833907
3.11025190 0.19487806 -0.48753768
3.09838820 0.18979214 0.37634522
3.10228133 0.18788055 0.16106389
3.10113215 0.18618548 -0.05362252
3.09740019 0.18648642 -0.26790416
3.10319376 0.18898806 -0.48636574
3.09190774 0.17313924 0.37543249
3.08577466 0.17064376 0.16014802
3.09454775 0.17006442 -0.05349162
3.09084463 0.17038447 -0.26725179
3.08934927 0.17189215 -0.48402178
3.07733941 0.16691408 0.37360704
3.07858944 0.16484627 0.15975550
3.08485627 0.16411723 -0.05331710
3.08119035 0.16444397 -0.26638198
3.07978225 0.16595377 -0.48245916
3.08064961 0.15092407 0.37391129
3.06943679 0.14822808 0.15923214
3.07319069 0.14734572 -0.05309894
3.07705975 0.14752486 -0.26594704
3.08060908 0.14982587 -0.48245916
3.06487393 0.14156105 -0.26485980
3.05866814 0.14337496 -0.47894326
3.54942560 0.78950757 0.31506801
3.54620814 0.76933181 0.31441432
3.54687476 0.76946986 0.06274140
3.54286218 0.76730698 -0.18814775
3.55820966 0.76932859 -0.44206110
3.52806520 0.75896156 0.31267121
3.53123665 0.75899118 0.06243598
3.52954865 0.75798494 -0.18736272
3.52314878 0.75533396 -0.43749750
3.52236843 0.73782474 0.31179968
3.52537489 0.73844665 0.06226145
3.51636195 0.73592317 -0.18644685
3.52232504 0.73524946 -0.43688902
3.50170183 0.72713053 0.30983865
3.51442003 0.72975814 0.06204330
3.50541711 0.72725558 -0.18579264
3.51132488 0.72720599 -0.43536779
3.49557233 0.70742685 0.30896711
3.49111629 0.70652139 0.06156336
3.49938726 0.70691919 -0.18526928
3.49805546 0.70538646 -0.43323815
3.48703337 0.69937116 0.30809554
3.50227094 0.70177674 0.06173788
3.48837423 0.69836676 -0.18461508
3.48224616 0.69588548 -0.43110847
3.47854257 0.67811829 0.30700612
3.49853611 0.68199849 0.06160699
3.49443412 0.68056810 -0.18474592
3.47134328 0.67420399 -0.42928299
3.46260166 0.66874945 0.30548087
3.49481201 0.67494595 0.06151973
3.48335838 0.67210984 -0.18409172
3.46021342 0.66641062 -0.42776179
3.45615077 0.64938092 0.30460933
3.45887351 0.64988482 0.06082163
3.47946763 0.65248543 -0.18369921
3.45389795 0.64646322 -0.42654485
3.44013786 0.64016783 0.30308411
3.45519948 0.64233202 0.06073437
3.45850754 0.64232075 -0.18252164
3.44526076 0.63863033 -0.42532787
3.44355106 0.62154567 0.30308411
3.44375443 0.62157607 0.06047259
3.44953728 0.62199497 -0.18186744
3.43156815 0.61691636 -0.42319819
3.43482327 0.61378765 0.30221254
3.41776466 0.61074275 0.05999264
3.42849588 0.61203694 -0.18068987
3.41787386 0.60892206 -0.42137274
3.43543172 0.59597027 0.30199465
3.40849662 0.59130675 0.05977449
3.41678882 0.59212631 -0.17990485
3.40389729 0.58807033 -0.41924307
3.41682816 0.58661306 0.30025154
3.39720416 0.58324891 0.05955633
3.39813018 0.58279687 -0.17885813
3.39513373 0.58046126 -0.41802612
3.40511084 0.56627142 0.29894418
3.39034772 0.56381857 0.05938181
3.38645482 0.56195879 -0.17807308
3.38833332 0.56106049 -0.41680917
3.37905955 0.55589557 0.29654741
3.38402367 0.55609667 0.05925092
3.37264752 0.55362934 -0.17728804
3.36971521 0.55194807 -0.41437525
3.37709832 0.53682595 0.29611164
3.38688898 0.53837043 0.05925092
3.37303424 0.53557259 -0.17715721
3.36039662 0.53177583 -0.41285405
3.35096455 0.52669257 0.29371485
3.38288426 0.53168494 0.05916365
3.38383031 0.53122795 -0.17768057
3.34896898 0.52458358 -0.41133282
3.34866261 0.50897956 0.29327908
3.39541769 0.51605278 0.05933818
3.37915945 0.51238436 -0.17728804
3.34185505 0.50556225 -0.41011587
3.34215665 0.50202858 0.29262540
3.35684776 0.50362164 0.05864008
3.37511039 0.50574869 -0.17702636
3.33536935 0.49863234 -0.40920314
3.32756877 0.48145202 0.29110017
3.34706831 0.48425579 0.05842192
3.37276983 0.48735848 -0.17676468
3.32573676 0.47881803 -0.40768194
3.31361008 0.47353807 0.28979284
3.32316184 0.47489133 0.05798562
3.33406758 0.47584975 -0.17467125
3.31665730 0.47219998 -0.40646499
3.30609488 0.45540670 0.28892127
3.31561708 0.45670658 0.05781109
3.30922508 0.45524141 -0.17323200
3.30187392 0.45247927 -0.40433532
3.30441689 0.44930169 0.28870341
3.29659295 0.44823632 0.05746205
3.29764438 0.44779253 -0.17257781
3.29282165 0.44539094 -0.40311834
3.28704143 0.42885044 0.28696030
3.28161788 0.42813993 0.05715663
3.28516388 0.42801738 -0.17179278
3.29272223 0.42725071 -0.40281412
3.27790380 0.42184705 0.28608873
3.27740169 0.42177656 0.05706936
3.27600050 0.42101589 -0.17126942
3.26877451 0.41893792 -0.39977169
3.26763749 0.40373099 0.28499928
3.26460910 0.40335244 0.05680758
3.26569963 0.40290794 -0.17061521
3.26846027 0.40151590 -0.39946747
3.26091981 0.39712837 0.28434560
3.26034498 0.39705256 0.05672032
3.25896215 0.39630783 -0.17022268
3.25683808 0.39432663 -0.39794627
3.26542854 0.38033554 0.28456348
3.26734543 0.38055152 0.05680758
3.24617839 0.37695029 -0.16943765
3.25146270 0.37641680 -0.39703351
3.26608729 0.37463573 0.28456348
3.25316858 0.37258020 0.05654579
3.24435043 0.37100190 -0.16930681
3.25211477 0.37074134 -0.39703351
3.27797008 0.35803497 0.28543505
3.28240967 0.35851115 0.05702573
3.22639251 0.35185593 -0.16826010
3.24667168 0.35234156 -0.39612082
3.26373172 0.35072541 0.28412771
3.27805924 0.35225046 0.05693847
3.23196697 0.34675404 -0.16852178
3.24475360 0.34697887 -0.39581656
3.23821044 0.33142853 0.28173092
3.23752499 0.33135268 0.05619675
3.23622155 0.33007866 -0.16865261
3.26133895 0.33148152 -0.39764202
3.21648097 0.32354623 0.27976996
3.23069358 0.32439166 0.05606585
3.20698190 0.32145959 -0.16708253
3.23228145 0.32284704 -0.39399114
3.19586945 0.30402935 0.27780893
3.20248532 0.30464861 0.05554228
3.20116448 0.30396003 -0.16669002
3.21915722 0.30396324 -0.39216569
3.18399596 0.29730079 0.27671948
3.18310094 0.29721162 0.05519323
3.18180275 0.29653108 -0.16564329
3.19492149 0.29662707 -0.38912329
3.20537782 0.28293362 0.50355452
3.17305493 0.28009394 0.27563003
3.16713405 0.27956876 0.05488782
3.17336297 0.27899855 -0.16511993
3.17418218 0.27795970 -0.38638514
3.16650319 0.27395716 0.49730408
3.16857648 0.27412915 0.27519426
3.16766500 0.27348778 0.05488782
3.16638279 0.27282113 -0.16472742
3.15735531 0.27094468 -0.38425547
3.14578724 0.25503850 0.49378815
3.15015388 0.25538370 0.27345115
3.15410399 0.25569543 0.05462603
3.16030192 0.25563893 -0.16433489
3.15630126 0.25366059 -0.38395122
3.13633728 0.24932013 0.49222556
3.14314604 0.24929906 0.27279747
3.14706969 0.24960177 0.05449514
3.15078783 0.24934101 -0.16381153
3.14432645 0.24773541 -0.38243002
3.13021207 0.23235115 0.49105358
3.13443255 0.23265570 0.27192593
3.13333535 0.23256885 0.05423335
3.13458037 0.23211043 -0.16289566
3.13320637 0.23036623 -0.38090879
3.11583495 0.22582567 0.48870963
3.12986588 0.22682776 0.27149016
3.12875032 0.22674149 0.05414609
3.13249040 0.22646071 -0.16276482
3.13112831 0.22472128 -0.38060457
3.11204696 0.20918001 0.48792836
3.12107062 0.20977484 0.27061859
3.12241244 0.20985807 0.05401520
3.12370539 0.20884895 -0.16224146
3.11988211 0.20750794 -0.37908337
3.09762263 0.20278947 0.48558441
3.11149073 0.20368260 0.26974702
3.10784316 0.20289527 0.05375341
3.10911727 0.20243272 -0.16145642
3.11033416 0.20142707 -0.37786642
3.09620953 0.18588039 0.48519379
3.10757494 0.18654951 0.26931125
3.10636735 0.18647166 0.05370978
3.10764217 0.18600309 -0.16132557
3.09403849 0.18357763 -0.37573671
3.08910203 0.18058895 0.48402178
3.10043693 0.18069541 0.26865759
3.09920168 0.18061809 0.05357888
3.10048461 0.18014911 -0.16093306
3.09184575 0.17857577 -0.37543249
3.08260775 0.16402304 0.48284984
3.08887649 0.16434658 0.26756814
3.08759522 0.16427310 0.05336073
3.09138393 0.16393125 -0.16040969
3.07786965 0.16161311 -0.37360704
3.10015225 0.15952015 0.48558441
3.07672215 0.15832303 0.26647869
3.07040286 0.15799569 0.05305531
3.07171822 0.15752506 -0.15936297
3.07319045 0.15599246 -0.37299854
3.07370973 0.14149438 0.05309894
3.08000779 0.14124170 -0.15975550
3.06903148 0.13914105 -0.37239009
3.06895733 0.13591146 0.05301168
3.55800009 0.79910684 -0.06304681
3.54533148 0.78063053 0.44084415
3.55025268 0.77914029 0.18867111
3.56213522 0.78046638 -0.06304681
3.53456998 0.77177948 0.43932295
3.53941274 0.77027279 0.18801692
3.54395628 0.76997787 -0.06269777
3.53605604 0.76823860 -0.31291726
3.52898812 0.75056720 0.43810597
3.52887845 0.74798685 0.18723187
3.53340125 0.74766868 -0.06243598
3.52297926 0.74607986 -0.31139508
3.51559901 0.74192995 0.43628055
3.51783633 0.73985809 0.18657768
3.52247214 0.73891920 -0.06221782
3.51696587 0.73838550 -0.31074274
3.49756622 0.71898729 0.43354237
3.49965620 0.71689153 0.18540013
3.50658083 0.71704978 -0.06186878
3.49638963 0.71493995 -0.30856818
3.48909259 0.71088773 0.43232542
3.49845576 0.71028244 0.18526928
3.49313188 0.70793074 -0.06160699
3.48543119 0.70634747 -0.30748090
3.47828650 0.68908727 0.43049997
3.49000430 0.68891054 0.18461508
3.48465180 0.68658900 -0.06138884
3.47686768 0.68566310 -0.30639365
3.45989084 0.67977041 0.42806605
3.47148657 0.67956543 0.18356836
3.47603440 0.67857778 -0.06121431
3.47317171 0.67863220 -0.30595872
3.45609260 0.66023880 0.42715335
3.46273756 0.65902972 0.18291415
3.45978332 0.65721798 -0.06086526
3.45210123 0.65636045 -0.30378416
3.44017673 0.65095389 0.42502365
3.45897698 0.65205377 0.18265249
3.45110178 0.64931709 -0.06069074
3.44590068 0.64894205 -0.30313182
3.43621802 0.63157701 0.42411092
3.45006776 0.63166964 0.18199828
3.46920371 0.63395333 -0.06095253
3.43455553 0.62818277 -0.30182710
3.41778898 0.62199855 0.42167699
3.44379735 0.62430161 0.18160577
3.46046877 0.62610465 -0.06077800
3.42829657 0.62084633 -0.30117470
3.40634084 0.60148621 0.41985154
3.42489457 0.60234034 0.18042821
3.47600675 0.61015391 -0.06099616
3.42659545 0.60201901 -0.30073982
3.39516687 0.59338784 0.41833037
3.42594051 0.59636194 0.18042821
3.40556264 0.59216839 -0.29878271
3.38355064 0.57309669 0.41650492
3.40440345 0.57423061 0.17911980
3.44567990 0.58001804 -0.06038532
3.40626097 0.57331729 -0.29856527
3.38209939 0.56677699 0.41620067
3.40047669 0.56745952 0.17885813
3.43436146 0.57193404 -0.06016717
3.38515115 0.56366032 -0.29660815
3.36797380 0.54566890 0.41407099
3.37885523 0.54504418 0.17754972
3.40286303 0.54773700 -0.05955633
3.37330675 0.54353130 -0.29530343
3.35167980 0.53760368 0.41194132
3.37724233 0.53933907 0.17741889
3.38406944 0.53862751 -0.05920729
3.36195517 0.53566700 -0.29421616
3.35444880 0.52004695 0.41194132
3.35781860 0.51819170 0.17624132
3.35958266 0.51727176 -0.05872735
3.35724068 0.51749551 -0.29356381
3.33328104 0.51077884 0.40920314
3.34144497 0.50967187 0.17532544
3.34812713 0.50951040 -0.05850919
3.33844566 0.50860780 -0.29182416
3.32617831 0.49127302 0.40798619
3.33674502 0.49048626 0.17493293
3.33352613 0.48882583 -0.05820378
3.33129430 0.48907727 -0.29095435
3.31467175 0.48423734 0.40646499
3.32763100 0.48379412 0.17440957
3.32448053 0.48156014 -0.05802925
3.32475019 0.48217988 -0.29030198
3.30487800 0.46512920 0.40494379
3.33259058 0.46671379 0.17454042
3.34915137 0.46786994 -0.05842192
3.33216143 0.46546081 -0.29073688
3.29339814 0.45763576 0.40342256
3.33340025 0.46089664 0.17454042
3.34748769 0.46167901 -0.05837830
3.32556868 0.45861360 -0.29008454
3.28353024 0.43815207 0.40190139
3.34079361 0.44351831 0.17480208
3.33286119 0.44185609 -0.29051945
3.28183031 0.43209323 0.40159714
3.32176304 0.43506607 0.17375536
3.32622027 0.43505940 -0.28986707
