1.96221566 0.17707418 0.23730740
1.97659719 0.17703263 0.10218595
1.98649526 0.17724913 -0.03420671
1.99179518 0.17772210 -0.17157173
2.00449157 0.18026480 -0.31291485
1.93689513 0.17703103 0.51114786
1.94601536 0.17451030 0.37269661
1.96746433 0.17409815 0.23791587
1.97938967 0.17380667 0.10231679
1.97933292 0.17311127 -0.03407582
1.99954402 0.17491359 -0.17222409
1.99496615 0.17587598 -0.31135219
1.94263601 0.16697407 0.51244026
1.95423734 0.16495523 0.37412640
1.96590507 0.16323955 0.23761165
1.97532582 0.16267335 0.10205511
1.99020374 0.16323970 -0.03425035
1.99050581 0.16360283 -0.17135428
1.99585962 0.16542800 -0.31135219
1.93570626 0.16295810 0.51050162
1.95452225 0.16154417 0.37412640
1.96368635 0.15994410 0.23730740
1.97806692 0.15977706 0.10218595
1.99048555 0.15976588 -0.03425035
1.99078834 0.16012850 -0.17135428
1.99860609 0.16214967 -0.31174287
1.93891335 0.15335478 0.51114786
1.95286846 0.15145390 0.37364981
1.97191834 0.15024289 0.23822013
1.97887635 0.14941779 0.10218595
1.99625301 0.15007527 -0.03433761
1.98911631 0.14951023 -0.17113683
2.00188947 0.15187526 -0.31213349
1.94640052 0.15054652 0.51308650
1.95070899 0.14751352 0.37317321
1.96722925 0.14642113 0.23761165
1.98660219 0.14653185 0.10257847
1.99401927 0.14640220 -0.03429398
1.98937428 0.14603835 -0.17113683
1.99722731 0.14800476 -0.31135219
1.94236958 0.13965537 0.51179403
1.95879769 0.13783175 0.37460300
1.96551740 0.13559875 0.23730740
1.98487568 0.13560534 0.10244763
2.00226283 0.13613714 -0.03442487
1.99011159 0.13562004 -0.17113683
2.01031423 0.13807075 -0.31330547
1.94742787 0.13661464 0.51308650
1.95413935 0.13406529 0.37364981
1.97070193 0.13251254 0.23791587
1.98012793 0.13179776 0.10218595
1.99252224 0.13195880 -0.03425035
1.99283004 0.13231714 -0.17135428
2.00562549 0.13422082 -0.31252417
1.94568479 0.12659353 0.51244026
1.96213937 0.12465691 0.37507960
1.97877634 0.12301536 0.23882861
1.98575270 0.12209168 0.10244763
2.00064826 0.12234685 -0.03438124
1.99098861 0.12207077 -0.17113683
2.00874329 0.12422583 -0.31291485
1.94349289 0.12303911 0.51179403
1.96235394 0.12123215 0.37507960
1.97155833 0.11909544 0.23791587
1.98845446 0.11878028 0.10257847
2.00085878 0.11885488 -0.03438124
1.99865603 0.11905698 -0.17178918
2.00649261 0.12056596 -0.31252417
1.95134234 0.11329861 0.51373267
1.96051180 0.11081141 0.37460300
1.97958696 0.10919801 0.23882861
1.98406398 0.10808409 0.10231679
2.01393199 0.10908102 -0.03459939
1.99678433 0.10810119 -0.17157173
2.00956178 0.11019924 -0.31291485
1.94430459 0.10946807 0.51179403
1.95337033 0.10662862 0.37317321
1.98225200 0.10588090 0.23913284
1.98923516 0.10489547 0.10257847
2.01411939 0.10556589 -0.03459939
1.99697006 0.10461599 -0.17157173
2.01961303 0.10723792 -0.31447744
1.95210314 0.09933231 0.51373267
1.96370554 0.09690629 0.37507960
1.98031759 0.09502972 0.23882861
1.98977363 0.09413119 0.10257847
2.01216435 0.09454399 -0.03455576
1.99500287 0.09403553 -0.17135428
2.01768064 0.09653819 -0.31408679
1.95709717 0.09617368 0.51502508
1.96387172 0.09347883 0.37507960
1.98294282 0.09203970 0.23913284
1.98742533 0.09088576 0.10244763
2.00733256 0.09079471 -0.03446850
1.99765170 0.09067206 -0.17157173
2.01537943 0.09289719 -0.31369612
1.95032167 0.08593049 0.51308650
1.96922290 0.08375773 0.37603277
1.97596037 0.08133242 0.23822013
1.99535680 0.08079859 0.10284015
2.01525855 0.08095152 -0.03459939
2.00307560 0.08042239 -0.17200665
2.02077246 0.08255631 -0.31447744
1.95770657 0.08285002 0.51502508
1.96692824 0.07987159 0.37555617
1.98105788 0.07809054 0.23882861
1.99549472 0.07731590 0.10284015
2.00540662 0.07702762 -0.03442487
2.00570130 0.07702749 -0.17222409
2.02338028 0.07913136 -0.31486809
1.95329976 0.07206701 0.51373267
1.96977198 0.06966422 0.37603277
1.99137056 0.06773115 0.24004556
2.00586390 0.06687365 0.10336351
2.00579405 0.06617624 -0.03442487
2.01603317 0.06687754 -0.17309393
2.01389623 0.06817917 -0.31330547
1.95824921 0.06883896 0.51502508
1.97724807 0.06649088 0.37746257
1.98651457 0.06443070 0.23943709
2.00097609 0.06355286 0.10310183
2.01090312 0.06284288 -0.03451213
2.01863599 0.06344267 -0.17331137
2.01648021 0.06474905 -0.31369612
1.95857251 0.05892653 0.51502508
1.97510636 0.05640651 0.37698597
1.99178541 0.05417486 0.24004556
2.01126385 0.05336250 0.10362519
2.01119518 0.05266402 -0.03451213
2.02391005 0.05336722 -0.17374629
2.01925993 0.05426190 -0.31408679
1.95625865 0.05543392 0.51437891
1.97274864 0.05288770 0.37650937
1.98939633 0.05062960 0.23974133
2.00386691 0.04964951 0.10323267
2.00878549 0.04908700 -0.03446850
2.01155210 0.04950010 -0.17265901
2.02922487 0.05100816 -0.31564942
1.96376479 0.04537486 0.51631749
1.97790551 0.04267508 0.37746257
1.98715341 0.04015664 0.23943709
2.00409913 0.03915666 0.10323267
2.00901484 0.03856840 -0.03446850
2.01925349 0.03912869 -0.17331137
2.02699542 0.04032779 -0.31525874
1.95901227 0.04183273 0.51502508
1.97552347 0.03916853 0.37698597
1.99218237 0.03679141 0.24004556
2.00666070 0.03570889 0.10336351
2.01407743 0.03516053 -0.03455576
2.01682878 0.03555482 -0.17309393
2.01965642 0.03663870 -0.31408679
1.96403372 0.03166420 0.51631749
1.98306298 0.02894887 0.37841576
1.98986638 0.02632137 0.23974133
2.00931644 0.02523864 0.10349435
2.00673580 0.02450579 -0.03442487
2.00951648 0.02488475 -0.17244156
2.02228975 0.02610084 -0.31447744
1.95925665 0.02815534 0.51502508
1.97329485 0.02533867 0.37650937
1.98494709 0.02277993 0.23913284
1.99937212 0.02160096 0.10297099
2.01177454 0.02106703 -0.03451213
2.01453733 0.02144178 -0.17287646
2.02973938 0.02267079 -0.31564942
1.96420693 0.01795199 0.51631749
1.98076260 0.01507947 0.37793916
1.98255777 0.01236529 0.23882861
1.99945784 0.01113203 0.10297099
2.01435685 0.01055193 -0.03455576
2.01711440 0.01056052 -0.17309393
2.02736092 0.01202258 -0.31525874
1.96665025 0.01454739 0.51696372
1.98815012 0.01133576 0.37936896
1.98505771 0.00892194 0.23913284
1.99947417 0.00764230 0.10297099
2.01687145 0.00705059 -0.03459939
2.02460122 0.00708301 -0.17374629
2.01997113 0.00843632 -0.31408679
1.96670008 0.00390662 0.51696372
1.98081982 0.00090516 0.37793916
1.98755836 -0.00181486 0.23943709
2.00447941 -0.00317247 0.10323267
2.01688027 -0.00386178 -0.03459939
2.02710104 -0.00351652 -0.17396374
2.02739549 -0.00213124 -0.31525874
1.96670401 0.00047408 0.51696372
1.98081827 -0.00255202 0.37793916
1.99251604 -0.00493778 0.24004556
1.99947882 -0.00631674 0.10297099
2.01437092 -0.00737840 -0.03455576
2.03705382 -0.00706665 -0.17483355
2.02985787 -0.00567100 -0.31564942
1.97392631 -0.00949797 0.51890230
1.98814249 -0.01260732 0.37936896
1.99742556 -0.01539730 0.24065405
2.00940442 -0.01684685 0.10349435
2.01930690 -0.01760620 -0.03464302
2.03200793 -0.01770032 -0.17439865
2.02486181 -0.01627075 -0.31486809
1.97390664 -0.01294311 0.51890230
1.98566043 -0.01640970 0.37889233
2.00235820 -0.01891895 0.24126253
2.01686144 -0.02041272 0.10388687
2.01427412 -0.02108951 -0.03455576
2.02948380 -0.02122639 -0.17418119
2.03717661 -0.01989743 -0.31682137
1.96897793 -0.02357636 0.51760995
1.98063922 -0.02675149 0.37793916
2.00470781 -0.02978361 0.24156678
2.01172876 -0.03125840 0.10362519
2.01413035 -0.03198742 -0.03455576
2.02187395 -0.03175199 -0.17352884
2.03950810 -0.03095116 -0.31721202
1.97617829 -0.02709503 0.51954854
1.99285936 -0.03036680 0.38032213
2.00465298 -0.03328244 0.24156678
2.01666379 -0.03484443 0.10388687
2.02156949 -0.03561786 -0.03468665
2.02181530 -0.03528078 -0.17352884
2.03451300 -0.03443832 -0.31643069
1.97360122 -0.03705736 0.51890230
1.99022639 -0.04040901 0.37984553
2.00197768 -0.04338035 0.24126253
2.01396537 -0.04500108 0.10375603
2.01636505 -0.04574737 -0.03459939
2.01911259 -0.04581559 -0.17331137
2.04171896 -0.04488152 -0.31760269
1.97836292 -0.04058956 0.52019477
1.99014509 -0.04422989 0.37984553
2.00437999 -0.04692680 0.24156678
2.01637959 -0.04857051 0.10388687
2.02377915 -0.04943272 -0.03473029
2.02898955 -0.04956034 -0.17418119
2.03423142 -0.04828591 -0.31643069
1.98052859 -0.05134977 0.52084094
1.98988640 -0.05464962 0.37984553
2.00161600 -0.05770497 0.24126253
2.01858306 -0.05954738 0.10401771
2.01598597 -0.06017488 -0.03459939
2.02870226 -0.06018338 -0.17418119
2.03641915 -0.05900234 -0.31682137
1.97802186 -0.05474526 0.52019477
1.98978782 -0.05812255 0.37984553
2.00152302 -0.06084904 0.24126253
2.01848722 -0.06271809 0.10401771
2.02087498 -0.06383991 -0.03468665
2.02112579 -0.06350629 -0.17352884
2.04371786 -0.06276719 -0.31799331
1.98254716 -0.06490284 0.52148712
1.98946810 -0.06819297 0.37984553
2.00861716 -0.07157622 0.24217525
2.01813102 -0.07328595 0.10401771
2.02552247 -0.07423947 -0.03477392
2.03073454 -0.07407599 -0.17439865
2.04336143 -0.07346716 -0.31799331
1.97760332 -0.06820786 0.52019477
1.99179900 -0.07174779 0.38032213
2.00848889 -0.07508180 0.24217525
2.01550508 -0.07671884 0.10388687
2.01789570 -0.07750370 -0.03464302
2.02313542 -0.07735160 -0.17374629
2.04569769 -0.07712086 -0.31838399
1.97963226 -0.07865176 0.52084094
1.99630046 -0.08236679 0.38127533
2.00806832 -0.08559715 0.24217525
2.02006483 -0.08747563 0.10414855
2.02745223 -0.08848172 -0.03481755
2.03264093 -0.08870859 -0.17461610
2.05020022 -0.08803178 -0.31916532
1.97707891 -0.08201237 0.52019477
1.99368668 -0.08609906 0.38079873
2.01039529 -0.08920611 0.24247949
2.01990914 -0.09100118 0.10414855
2.02729464 -0.09202016 -0.03481755
2.03497124 -0.09236342 -0.17483355
2.04757643 -0.09150521 -0.31877464
1.97901881 -0.09281558 0.52084094
1.99566019 -0.09664979 0.38127533
2.01236176 -0.10019978 0.24278374
2.01689339 -0.10180833 0.10401771
2.02926373 -0.10310872 -0.03486118
2.02948427 -0.10277647 -0.17439865
2.04706907 -0.10222500 -0.31877464
1.98126614 -0.09638113 0.52148712
1.99303687 -0.10001541 0.38079873
2.01468015 -0.10348232 0.24308796
2.02670479 -0.10547287 0.10454107
2.02908087 -0.10665029 -0.03486118
2.03178954 -0.10644313 -0.17461610
2.05182004 -0.10604147 -0.31955594
1.99281240 -0.10702729 0.52471817
2.00230789 -0.11062063 0.38270509
2.02113914 -0.11580880 0.10427939
2.03350663 -0.11719543 -0.03494844
2.03369093 -0.11721778 -0.17483355
2.04877138 -0.11664847 -0.31916532
2.02342653 -0.11947770 0.10441023
2.04342937 -0.12133530 -0.17570338
2.04856467 -0.12022405 -0.31916532
2.06023026 -0.13170882 -0.32111859
1.92019868 0.72419131 0.17649037
1.85971832 0.69739830 0.45012394
1.90513146 0.71473074 0.17496516
1.87260973 0.69068921 0.45237175
1.87665057 0.69289964 0.31096154
1.89949906 0.70130426 0.17409359
1.84624040 0.67770088 0.44562832
1.87321973 0.68792516 0.31018025
1.88201094 0.69113761 0.17235048
1.91696358 0.70392889 0.03503570
1.85675657 0.67017621 0.44731417
1.85821056 0.67141283 0.30705500
1.86685920 0.67452174 0.17060737
1.90416121 0.68795222 0.03473029
1.85792351 0.66693449 0.44731417
1.87100255 0.67233264 0.30900827
1.88210094 0.67630213 0.17191470
1.90547848 0.68429524 0.03473029
1.93387318 0.69408107 -0.10584947
1.85920656 0.65606409 0.44675222
1.86995471 0.66055936 0.30822694
1.87868512 0.66362733 0.17126103
1.88781595 0.66683632 0.03433761
1.93277073 0.68228817 -0.10558779
1.86483335 0.65475231 0.44787613
1.87332022 0.65843773 0.30861759
1.88924265 0.66364002 0.17213258
1.90077257 0.66767120 0.03455576
1.92217648 0.67479008 -0.10493358
1.92499077 0.67502707 -0.24582614
1.86132574 0.64260107 0.44619027
1.86973834 0.64620715 0.30744565
1.89022291 0.65325803 0.17191470
1.90412760 0.65804207 0.03455576
1.91151929 0.65984201 -0.10414855
1.92380500 0.66332519 -0.24521764
1.94050062 0.66794086 -0.39176041
1.86705422 0.64092880 0.44731417
1.86619139 0.64134228 0.30666435
1.88664806 0.64834368 0.17147893
1.90538740 0.65438515 0.03455576
1.91266799 0.65650481 -0.10414855
1.90382755 0.65274370 -0.24247949
1.93469536 0.66217536 -0.39033058
1.86587644 0.62926537 0.44619027
1.87197435 0.63202345 0.30705500
1.88776779 0.63733208 0.17126103
1.89931130 0.64121050 0.03438124
1.90661383 0.64329761 -0.10362519
1.91438842 0.64480299 -0.24339221
1.93359601 0.65013826 -0.38937744
1.86455226 0.62556118 0.44562832
1.87530625 0.62986618 0.30744565
1.88415372 0.63245595 0.17082526
1.89568675 0.63630843 0.03429398
1.91483688 0.64234424 -0.10401771
1.92481339 0.64493966 -0.24460918
1.93472791 0.64676255 -0.38937744
1.86780214 0.61578977 0.44562832
1.87857854 0.62003845 0.30744565
1.89679372 0.62602443 0.17169681
1.90125751 0.62748647 0.03433761
1.91105855 0.62997127 -0.10362519
1.92580605 0.63407868 -0.24430493
1.93097997 0.63466948 -0.38794762
1.86887407 0.61252892 0.44562832
1.87261701 0.61445612 0.30627367
1.89078224 0.62039047 0.17104314
1.90245879 0.62383515 0.03433761
1.91690135 0.62818533 -0.10388687
1.91983283 0.62840760 -0.24339221
1.93208468 0.63129830 -0.38794762
1.86984098 0.60166454 0.44506633
1.88061619 0.60582501 0.30705500
1.89173973 0.60938996 0.17082526
1.90569901 0.61386538 0.03433761
1.91065538 0.61508882 -0.10336351
1.93029416 0.62028176 -0.24430493
1.94014716 0.62233031 -0.38890082
1.86614203 0.59724617 0.44394243
1.87461364 0.60028964 0.30588302
1.89280045 0.60608739 0.17082526
1.90438616 0.60977846 0.03429398
1.91410470 0.61251181 -0.10349435
1.92664504 0.61540633 -0.24369647
1.94356942 0.61968648 -0.38937744
1.87167096 0.58786845 0.44450441
1.87537467 0.58972752 0.30549237
1.90070093 0.59765792 0.17126103
1.91232324 0.60129374 0.03438124
1.91966796 0.60322732 -0.10362519
1.92747235 0.60456967 -0.24339221
1.93741643 0.60657740 -0.38747105
1.87259221 0.58492762 0.44450441
1.88347387 0.58865637 0.30666435
1.90411913 0.59508026 0.17147893
1.90382361 0.59498185 0.03420671
1.91356659 0.59764993 -0.10323267
1.93563342 0.60341340 -0.24430493
1.93847227 0.60319501 -0.38747105
1.86864007 0.57297939 0.44281852
1.87934530 0.57694870 0.30549237
1.89758062 0.58252090 0.17060737
1.91398168 0.58753192 0.03433761
1.91666961 0.58762246 -0.10323267
1.92916942 0.59071159 -0.24308796
1.94150031 0.59337586 -0.38747105
1.86730635 0.56900936 0.44225660
1.88271201 0.57438600 0.30588302
1.89621150 0.57848364 0.17038947
1.90793097 0.58167630 0.03420671
1.91530335 0.58355093 -0.10310183
1.93019748 0.58734363 -0.24308796
1.93548620 0.58785349 -0.38604125
1.87969661 0.56167853 0.44450441
1.88105941 0.56278032 0.30510172
1.89931369 0.56821573 0.17038947
1.91334605 0.57239264 0.03425035
1.92551053 0.57565296 -0.10349435
1.92621160 0.57476997 -0.24217525
1.94099116 0.57807118 -0.38651785
1.87356901 0.55665076 0.44281852
1.88667619 0.56122833 0.30588302
1.90507829 0.56631464 0.17082526
1.90954864 0.56763244 0.03416308
1.92411840 0.57158279 -0.10336351
1.92473245 0.57104003 -0.24187101
1.94435108 0.57537675 -0.38699445
1.87645781 0.54683322 0.44281852
1.89670205 0.55341005 0.30705500
1.90552878 0.55596972 0.17060737
1.91239727 0.55796015 0.03416308
1.93187988 0.56289256 -0.10362519
1.93246257 0.56233650 -0.24247949
1.94016623 0.56348163 -0.38556468
1.88209069 0.54490763 0.44394243
1.89054823 0.54804325 0.30588302
1.90649629 0.55264306 0.17060737
1.91826808 0.55567396 0.03425035
1.93765700 0.56090379 -0.10388687
1.93582547 0.55964971 -0.24278374
1.94350529 0.56077260 -0.38604125
1.88266718 0.53405416 0.44338050
1.89823759 0.53915107 0.30666435
1.90226924 0.54028559 0.16995369
1.91153073 0.54289997 0.03407582
1.94056726 0.55075061 -0.10388687
1.92927265 0.54647183 -0.24156678
1.95123541 0.55157971 -0.38699445
1.88115835 0.53043741 0.44281852
1.89670515 0.53550011 0.30627367
1.90081179 0.53629076 0.16973580
1.91006887 0.53888643 0.03403219
1.93912196 0.54668766 -0.10375603
1.93251777 0.54411089 -0.24187101
1.94510508 0.54618967 -0.38556468
1.87921262 0.51928747 0.44169462
1.89948297 0.52556163 0.30627367
1.90350187 0.52666306 0.16973580
1.91518188 0.52987611 0.03407582
1.94186425 0.53686595 -0.10375603
1.93534005 0.53398490 -0.24187101
1.95021117 0.53698689 -0.38604125
1.87767637 0.51569223 0.44113269
1.89801586 0.52159363 0.30588302
1.91162431 0.52531278 0.17038947
1.92092538 0.52785265 0.03416308
1.93557394 0.53149956 -0.10336351
1.94584453 0.53322041 -0.24308796
1.95351326 0.53422743 -0.38651785
1.88279212 0.50615555 0.44169462
1.89595079 0.51036954 0.30510172
1.91194332 0.51465142 0.17017159
1.92607713 0.51843488 0.03420671
1.93842125 0.52101940 -0.10336351
1.94381535 0.52174270 -0.24247949
1.95628369 0.52399153 -0.38651785
1.88131857 0.50224274 0.44113269
1.89206636 0.50578898 0.30432039
1.91283858 0.51131362 0.17017159
1.91740668 0.51216519 0.03403219
1.93691504 0.51699388 -0.10323267
1.94232464 0.51771253 -0.24217525
1.95482290 0.51994783 -0.38604125
1.88872361 0.49328297 0.44225660
1.89716458 0.49616697 0.30471104
1.91075695 0.49970120 0.16973580
1.92006207 0.50211871 0.03403219
1.93234718 0.50495851 -0.10284015
1.94029391 0.50594842 -0.24156678
1.95523202 0.50874799 -0.38556468
1.88949609 0.49031559 0.44225660
1.90033233 0.49380502 0.30510172
1.91403735 0.49698910 0.16995369
1.92093551 0.49876684 0.03403219
1.93805993 0.50283450 -0.10310183
1.93387806 0.50103986 -0.24065405
1.95136333 0.50411153 -0.38461146
1.89439905 0.48101264 0.44281852
1.90049791 0.48324201 0.30471104
1.91169965 0.48607224 0.16951792
1.92343545 0.48903775 0.03403219
1.93340504 0.49084401 -0.10270931
1.93647504 0.49090728 -0.24065405
1.96102929 0.49602699 -0.38604125
1.88814747 0.47592649 0.44113269
1.89175940 0.47751635 0.30314845
1.91012979 0.48212782 0.16930003
1.92437077 0.48534411 0.03403219
1.93183720 0.48686108 -0.10257847
1.93251491 0.48632026 -0.24004556
1.95474958 0.49081746 -0.38461146
1.89542687 0.46686420 0.44225660
1.90390742 0.46963003 0.30471104
1.92238486 0.47416225 0.17017159
1.92445827 0.47466528 0.03398856
1.93678463 0.47733447 -0.10270931
1.93993819 0.47703770 -0.24065405
1.96214473 0.48139912 -0.38556468
1.89615774 0.46388629 0.44225660
1.90464270 0.46663880 0.30471104
1.92562890 0.47139618 0.17038947
1.92528367 0.47130576 0.03398856
1.93518913 0.47336254 -0.10257847
1.94068527 0.47398987 -0.24065405
1.95344174 0.47566050 -0.38365832
1.89382100 0.45282346 0.44113269
1.90705979 0.45665976 0.30471104
1.93283534 0.46279889 0.17082526
1.93493879 0.46329409 0.03411945
1.93998885 0.46414024 -0.10270931
1.95279717 0.46611720 -0.24187101
1.96298790 0.46746591 -0.38508809
1.89690053 0.45040849 0.44169462
1.90785384 0.45333064 0.30471104
1.93121672 0.45885143 0.17060737
1.93574440 0.45991629 0.03411945
1.94079590 0.46075362 -0.10270931
1.95119250 0.46213865 -0.24156678
1.96141183 0.46347708 -0.38461146
1.89693606 0.43959117 0.44113269
1.91020143 0.44333497 0.30471104
1.92631292 0.44705132 0.16995369
1.93081987 0.44808638 0.03398856
1.94318187 0.45058534 -0.10270931
1.95358551 0.45191592 -0.24156678
1.96620357 0.45375037 -0.38508809
1.89762425 0.43661094 0.44113269
1.90856540 0.43944871 0.30432039
1.92951798 0.44424504 0.17017159
1.93890810 0.44639117 0.03411945
1.94396532 0.44719318 -0.10270931
1.94953299 0.44740015 -0.24095827
1.95981419 0.44868189 -0.38365832
1.89282644 0.42474446 0.43944681
1.91084027 0.42944950 0.30432039
1.92938709 0.43359235 0.16995369
1.93146157 0.43405020 0.03394493
1.94384360 0.43646389 -0.10257847
1.95911467 0.43880644 -0.24187101
1.96932340 0.44001275 -0.38508809
1.89824784 0.42282525 0.44057071
1.91158700 0.42611378 0.30432039
1.92770958 0.42968482 0.16973580
1.93221617 0.43067849 0.03394493
1.94460249 0.43307060 -0.10257847
1.95987761 0.43538648 -0.24187101
1.97008836 0.43657497 -0.38508809
1.90050769 0.41254857 0.44057071
1.91620529 0.41662121 0.30471104
1.93236709 0.42011222 0.16995369
1.93200171 0.42002693 0.03390130
1.94447696 0.42201585 -0.10244763
1.95727909 0.42407247 -0.24126253
1.96035087 0.42367309 -0.38270509
1.89646077 0.40821049 0.43944681
1.91451514 0.41275814 0.30432039
1.93553245 0.41726145 0.17017159
1.94013679 0.41788888 0.03403219
1.94765162 0.41914430 -0.10257847
1.95558965 0.42013684 -0.24095827
1.97068799 0.42229870 -0.38461146
1.89625716 0.39744642 0.43888488
1.91913736 0.40289855 0.30471104
1.92801034 0.40474600 0.16930003
1.93740463 0.40670234 0.03394493
1.94981956 0.40894073 -0.10257847
1.95540500 0.40904424 -0.24065405
1.97054100 0.41113114 -0.38413486
1.90165007 0.39545447 0.44000879
1.91976798 0.39988351 0.30471104
1.92871380 0.40138036 0.16930003
1.94055927 0.40382722 0.03398856
1.95053029 0.40553701 -0.10257847
1.95604503 0.40597218 -0.24065405
1.97365940 0.40818605 -0.38461146
1.90847063 0.38645422 0.44113269
1.91941488 0.38933772 0.30432039
1.93316185 0.39210585 0.16951792
1.94502854 0.39449450 0.03403219
1.95752168 0.39630464 -0.10284015
1.96057642 0.39621404 -0.24095827
1.96607518 0.39626107 -0.38270509
1.90914226 0.38312271 0.44113269
1.92009151 0.38598710 0.30432039
1.93872750 0.38970810 0.16995369
1.94087994 0.38977998 0.03394493
1.94841743 0.39093244 -0.10231679
1.95639789 0.39182168 -0.24034980
1.96917105 0.39330736 -0.38318169
1.91357851 0.37325168 0.44169462
1.91245615 0.37370816 0.30275780
1.93836296 0.37873775 0.16973580
1.94534791 0.38008925 0.03398856
1.95533919 0.38167712 -0.10257847
1.96092546 0.38170266 -0.24065405
1.97367978 0.38311276 -0.38365832
1.90459394 0.36840448 0.43944681
1.91304076 0.37070364 0.30275780
1.94146645 0.37582499 0.16995369
1.94600832 0.37669340 0.03398856
1.95600235 0.37826386 -0.10257847
1.96639633 0.37955782 -0.24126253
1.97675562 0.38012853 -0.38413486
1.90649676 0.35842705 0.43944681
1.91980970 0.36159122 0.30353910
1.94089603 0.36553505 0.16973580
1.95034683 0.36729923 0.03403219
1.95550227 0.36755830 -0.10244763
1.96835673 0.36925668 -0.24126253
1.98106718 0.37056738 -0.38461146
1.90232873 0.35421202 0.43832293
1.91315413 0.35688871 0.30236712
1.94642854 0.36305553 0.17017159
1.95350635 0.36400968 0.03407582
1.95123100 0.36323568 -0.10218595
1.95923805 0.36401701 -0.24004556
1.97929740 0.36666447 -0.38413486
1.91620576 0.34606704 0.44113269
1.91505706 0.34653237 0.30236712
1.94101083 0.35119602 0.16951792
1.95046520 0.35289094 0.03398856
1.95802057 0.35389748 -0.10244763
1.96362114 0.35384893 -0.24034980
1.97883654 0.35551855 -0.38365832
1.91434872 0.34262982 0.44057071
1.92295218 0.34448856 0.30353910
1.95142841 0.34955475 0.17038947
1.95599997 0.35036290 0.03407582
1.95863533 0.35047954 -0.10244763
1.95446265 0.34868741 -0.23913284
1.97945404 0.35206428 -0.38365832
1.91617441 0.33226728 0.44057071
1.85555005 0.69430840 0.52084094
1.92472947 0.33441532 0.30353910
1.86316466 0.69389236 0.37936896
1.94586957 0.33806068 0.16973580
1.95288134 0.33926561 0.03398856
1.95552289 0.33937037 -0.10218595
1.96604371 0.34013176 -0.24034980
1.97885144 0.34128034 -0.38318169
1.91669393 0.32925692 0.44057071
1.85902035 0.69191653 0.52148712
1.92525244 0.33139154 0.30353910
1.86667228 0.69149739 0.37984553
1.95136642 0.33550319 0.17017159
1.91113734 0.70546907 0.24552189
1.95593429 0.33627781 0.03403219
1.95611227 0.33595681 -0.10218595
1.96168315 0.33620948 -0.23974133
1.98428285 0.33864713 -0.38413486
1.92079508 0.31961411 0.44113269
1.83984244 0.67413551 0.51502508
1.92696118 0.32130644 0.30353910
1.85171914 0.67527080 0.37603277
1.95058250 0.32521498 0.16995369
1.87984836 0.68266743 0.24095827
1.95761132 0.32637367 0.03403219
1.96523392 0.32693207 -0.10257847
1.96341670 0.32593355 -0.23974133
1.98839343 0.32899779 -0.38461146
1.91173375 0.31468824 0.43888488
1.84328341 0.67175573 0.51567131
1.92508221 0.31754333 0.30314845
1.86223316 0.67508161 0.37793916
1.95360482 0.32221296 0.17017159
1.88803267 0.68193024 0.24187101
1.95823431 0.32261473 0.03403219
1.89044297 0.68133348 0.10349435
1.96087372 0.32269552 -0.10231679
1.96153355 0.32210651 -0.23943709
1.98169768 0.32434469 -0.38318169
1.91581452 0.30472043 0.43944681
1.85143399 0.66341293 0.51696372
1.92433345 0.30673674 0.30275780
1.87036180 0.66698122 0.37889233
1.94548035 0.31007990 0.16930003
1.88001239 0.66752684 0.24034980
1.95495892 0.31157503 0.03394493
1.89410150 0.67109537 0.10349435
1.96746838 0.31320429 -0.10257847
1.96079648 0.31110248 -0.23913284
1.98342347 0.31361797 -0.38318169
1.91869771 0.30208716 0.44000879
1.84804308 0.65854841 0.51567131
1.91993392 0.30294871 0.30197647
1.86227846 0.66041315 0.37698597
1.94355798 0.30629864 0.16908213
1.87872088 0.66374093 0.24004556
1.96043885 0.30893591 0.03403219
1.88574290 0.66477752 0.10297099
1.96307886 0.30899829 -0.10231679
1.96128261 0.30802208 -0.23913284
1.94017029 0.68333644 -0.17657319
1.98396790 0.31015581 -0.38318169
1.92025304 0.29203680 0.44000879
1.84907544 0.64838159 0.51502508
1.93370092 0.29474023 0.30392975
1.86559737 0.65097886 0.37698597
1.95000815 0.29720324 0.16951792
1.87982821 0.65307516 0.23974133
1.95456302 0.29788670 0.03390130
1.88919771 0.65489471 0.10297099
1.95726430 0.29759678 -0.10192427
1.90112865 0.65832376 -0.03451213
1.96286857 0.29774866 -0.23913284
1.87552619 0.64938021 -0.17026702
1.98551214 0.30011007 -0.38318169
1.93630385 0.67206430 -0.31877464
1.92557847 0.28940415 0.44113269
1.84792602 0.64435285 0.51437891
1.93177032 0.29099944 0.30353910
1.87147725 0.64901501 0.37793916
1.95052397 0.29379937 0.16951792
1.88096523 0.64979327 0.23974133
1.96749210 0.29598102 0.03411945
1.88797927 0.65077746 0.10284015
1.96765745 0.29565459 -0.10244763
1.90227461 0.65500468 -0.03451213
1.96829391 0.29505330 -0.23974133
1.90489256 0.65589988 -0.17287646
1.98603308 0.29664427 -0.38318169
1.92114723 0.66300786 -0.31604007
1.91747117 0.27759519 0.43888488
1.85595071 0.63592166 0.51567131
1.93087256 0.28019115 0.30314845
1.87484992 0.63920712 0.37793916
1.95455015 0.28359699 0.16973580
1.88210547 0.63880384 0.23943709
1.96159279 0.28460568 0.03398856
1.89856124 0.64297169 0.10323267
1.96176517 0.28428102 -0.10205511
1.90579081 0.64470285 -0.03451213
1.97231793 0.28475180 -0.24004556
1.91065812 0.64672089 -0.17309393
1.99732685 0.28728276 -0.38508809
1.91991925 0.65134245 -0.31525874
1.92272842 0.27526852 0.44000879
1.85705769 0.63268149 0.51567131
1.92886567 0.27680945 0.30275780
1.87131786 0.63434732 0.37698597
1.95997334 0.28088704 0.17017159
1.88310659 0.63584661 0.23943709
1.96951044 0.28223822 0.03411945
1.89484072 0.63838375 0.10297099
1.96967363 0.28191066 -0.10244763
1.90691316 0.64137566 -0.03451213
1.97521949 0.28200164 -0.24034980
1.90706670 0.64178568 -0.17265901
1.99053502 0.28276786 -0.38365832
1.91871500 0.64719599 -0.31486809
1.92655683 0.26552758 0.44057071
1.85337198 0.62095582 0.51373267
1.93518138 0.26737729 0.30353910
1.86985195 0.62330455 0.37603277
1.96136987 0.27096316 0.17017159
1.89111686 0.62755203 0.24004556
1.96100807 0.27090737 0.03394493
1.90763032 0.63161403 0.10349435
1.97107542 0.27193767 -0.10244763
1.91250634 0.63250595 -0.03455576
1.98158622 0.27232659 -0.24095827
1.90320253 0.62976158 -0.17200665
1.99437237 0.27301979 -0.38413486
1.92207742 0.63714081 -0.31486809
1.93421376 0.26348025 0.44225660
1.86132121 0.62002635 0.51567131
1.93319809 0.26366806 0.30314845
1.87326455 0.62081754 0.37650937
1.96183991 0.26753953 0.17017159
1.88279045 0.62111902 0.23882861
1.96395504 0.26781973 0.03398856
1.89688158 0.62435371 0.10284015
1.98639131 0.27050415 -0.10323267
1.91123462 0.62838095 -0.03451213
1.98205864 0.26886761 -0.24095827
1.90902686 0.62800628 -0.17244156
1.98754871 0.26855969 -0.38270509
1.91849971 0.63222885 -0.31408679
1.92353201 0.25144467 0.43944681
1.85766172 0.60800189 0.51373267
1.93455207 0.25354227 0.30314845
1.87648940 0.61100066 0.37650937
1.95827448 0.25662133 0.16973580
1.89073420 0.61279327 0.23943709
1.96533036 0.25753284 0.03398856
1.90012467 0.61441314 0.10284015
1.98282886 0.25945666 -0.10297099
1.90736783 0.61604404 -0.03438124
1.98836100 0.25912261 -0.24156678
1.90992069 0.61723071 -0.17222409
1.99136198 0.25846285 -0.38318169
1.92413139 0.62294090 -0.31447744
1.92875707 0.24904194 0.44057071
1.86101508 0.60551149 0.51437891
1.93989015 0.25079384 0.30392975
1.87288678 0.60620219 0.37555617
1.96118951 0.25351998 0.16995369
1.88708067 0.60795963 0.23882861
1.96329737 0.25378424 0.03394493
1.90119410 0.61109591 0.10284015
1.98080218 0.25567833 -0.10284015
1.91319668 0.61425322 -0.03446850
1.98388720 0.25502381 -0.24095827
1.91099513 0.61389637 -0.17222409
1.99424458 0.25529614 -0.38365832
1.92521572 0.61958170 -0.31447744
1.92765856 0.23830631 0.44000879
1.85956252 0.59427762 0.51308650
1.93137324 0.23942778 0.30236712
1.87603521 0.59638751 0.37555617
1.96001828 0.24294387 0.16973580
1.89260197 0.59882456 0.23913284
1.96211839 0.24319597 0.03390130
1.89960968 0.59961897 0.10257847
1.98706973 0.24591193 -0.10310183
1.91400433 0.60347033 -0.03442487
1.99012160 0.24523501 -0.24156678
1.90943646 0.60237265 -0.17178918
1.99311769 0.24455433 -0.38318169
1.92137480 0.60724425 -0.31330547
1.94012225 0.23674133 0.44281852
1.86519682 0.59250444 0.51437891
1.93914235 0.23694777 0.30353910
1.87473488 0.59236741 0.37507960
1.96043921 0.23952262 0.16973580
1.89127898 0.59477067 0.23882861
1.96502125 0.24007179 0.03394493
1.91017485 0.59931391 0.10310183
1.98006046 0.24154368 -0.10270931
1.91743839 0.60088176 -0.03446850
1.98808300 0.24146441 -0.24126253
1.91523433 0.60054028 -0.17222409
1.99841475 0.24165985 -0.38413486
1.92243183 0.60388988 -0.31330547
1.93895495 0.22596130 0.44225660
1.86596966 0.58200556 0.51373267
1.94280934 0.22707549 0.30392975
1.88015294 0.58327591 0.37555617
1.97156239 0.23040128 0.17060737
1.89199793 0.58412224 0.23852436
1.96873450 0.23006746 0.03398856
1.90613377 0.58708310 0.10270931
1.98877859 0.23168659 -0.10310183
1.91578341 0.58935308 -0.03438124
1.98685491 0.23076764 -0.24095827
1.91845560 0.59016913 -0.17222409
1.99965262 0.23119292 -0.38413486
1.92556727 0.59381586 -0.31330547
1.92966485 0.22147547 0.44000879
1.86928785 0.57946861 0.51437891
1.94074929 0.22340435 0.30353910
1.87423849 0.57748073 0.37412640
1.96948683 0.22667752 0.17038947
1.89538515 0.58155257 0.23882861
1.97165608 0.22657029 0.03403219
1.90954101 0.58449155 0.10284015
1.98421872 0.22765078 -0.10284015
1.91919780 0.58674473 -0.03442487
1.99465144 0.22813842 -0.24187101
1.91710269 0.58608633 -0.17200665
2.00249171 0.22797778 -0.38461146
1.92896008 0.59118319 -0.31369612
1.93083477 0.21103178 0.44000879
1.87008667 0.56863815 0.51373267
1.94192958 0.21290067 0.30353910
1.87019420 0.56551164 0.37269661
1.97316051 0.21628729 0.17060737
1.89850390 0.57128912 0.23882861
1.97281528 0.21624367 0.03403219
1.91267550 0.57415140 0.10284015
1.99034750 0.21779677 -0.10310183
1.92473686 0.57707566 -0.03446850
1.99338949 0.21707676 -0.24156678
1.92014503 0.57604045 -0.17200665
2.00613618 0.21740206 -0.38508809
1.92966616 0.58035851 -0.31330547
1.93843055 0.20877387 0.44169462
1.86876619 0.56466937 0.51308650
1.94962728 0.21063849 0.30471104
1.87352705 0.56295854 0.37317321
1.97105849 0.21257849 0.17038947
1.90177453 0.56902301 0.23913284
1.97567523 0.21306576 0.03407582
1.91118443 0.57042676 0.10270931
1.98327720 0.21352802 -0.10270931
1.91855931 0.57155812 -0.03433761
1.99126053 0.21368289 -0.24126253
1.92114747 0.57268828 -0.17200665
2.00163126 0.21338472 -0.38413486
1.92594755 0.57556480 -0.31252417
1.94434428 0.19911298 0.44281852
1.86928666 0.55451113 0.51244026
1.94579041 0.19992751 0.30392975
1.87164795 0.55206883 0.37222004
1.97210920 0.20259938 0.17038947
1.90234852 0.55835325 0.23882861
1.97175479 0.20255719 0.03398856
1.90217304 0.55687720 0.10205511
1.98933578 0.20364447 -0.10297099
1.92862034 0.56396109 -0.03446850
1.99235213 0.20325378 -0.24126253
1.91695333 0.56050807 -0.17135428
2.00024414 0.20300543 -0.38365832
1.93840683 0.56827307 -0.31408679
1.93256891 0.19451155 0.44000879
1.87025154 0.55124772 0.51244026
1.94367933 0.19628549 0.30353910
1.88211858 0.55125600 0.37412640
1.96502554 0.19841374 0.16973580
1.89379787 0.55223143 0.23761165
1.97214007 0.19877133 0.03398856
1.90314198 0.55355638 0.10205511
1.98968828 0.20017211 -0.10297099
1.92720294 0.55989140 -0.03442487
1.99517310 0.20002134 -0.24156678
1.91553855 0.55646127 -0.17113683
2.00547981 0.19999640 -0.38461146
1.93228793 0.56280118 -0.31291485
1.93844354 0.18450934 0.44113269
1.87088823 0.54044497 0.51179403
1.94962955 0.18623111 0.30432039
1.87555051 0.53866154 0.37222004
1.97350836 0.18848221 0.17038947
1.90152657 0.54335159 0.23822013
1.97564232 0.18867779 0.03403219
1.90371001 0.54256159 0.10192427
1.99319446 0.18998593 -0.10310183
1.93260646 0.55014586 -0.03446850
1.99375546 0.18899173 -0.24126253
1.92321336 0.54779941 -0.17157173
2.00164557 0.18868691 -0.38365832
1.93520820 0.55267602 -0.31291485
1.94115663 0.18168880 0.44169462
1.87646806 0.53852230 0.51308650
1.94746101 0.18293987 0.30392975
1.88120461 0.53674513 0.37317321
1.97383440 0.18503749 0.17038947
1.89522147 0.53831327 0.23730740
1.97596860 0.18522935 0.03403219
1.90696025 0.54025662 0.10205511
1.99600899 0.18673705 -0.10323267
1.92154503 0.54334384 -0.03425035
1.99404991 0.18585972 -0.24126253
1.91937673 0.54307485 -0.17113683
2.00197172 0.18519309 -0.38365832
1.94091785 0.55065638 -0.31369612
1.93722773 0.17109872 0.44057071
1.87452352 0.52769774 0.51179403
1.94593227 0.17252490 0.30353910
1.88389707 0.52721667 0.37317321
1.96730292 0.17439222 0.16973580
1.90279198 0.52972472 0.23791587
1.98435104 0.17588061 0.03416308
1.90976274 0.53026438 0.10205511
1.99944639 0.17650060 -0.10336351
1.92667770 0.53428453 -0.03429398
1.99005163 0.17498644 -0.24065405
1.92459238 0.53368855 -0.17135428
2.00532818 0.17526920 -0.38413486
1.93664193 0.53848541 -0.31252417
1.94480503 0.16834033 0.44225660
1.87776589 0.52508122 0.51244026
1.95361114 0.16976237 0.30471104
1.88490582 0.52359891 0.37317321
1.97008562 0.17117153 0.16995369
1.89893341 0.52506912 0.23730740
1.97721350 0.17143008 0.03403219
1.91068530 0.52693045 0.10205511
1.99228907 0.17237222 -0.10297099
1.92760718 0.53092104 -0.03429398
1.99777138 0.17214487 -0.24156678
1.92312121 0.52966195 -0.17113683
2.00318599 0.17156193 -0.38365832
1.94233620 0.53643018 -0.31330547
1.93840241 0.15723194 0.44057071
1.87825155 0.51427060 0.51179403
1.95696247 0.15938793 0.30510172
1.88525498 0.51307231 0.37269661
1.97346532 0.16070960 0.17017159
1.90174651 0.51478726 0.23730740
1.98057580 0.16127558 0.03407582
1.91350830 0.51658505 0.10205511
1.99067557 0.16173849 -0.10284015
1.92803979 0.51982778 -0.03425035
2.00114703 0.16153069 -0.24187101
1.92827129 0.52023947 -0.17135428
2.00408483 0.16072118 -0.38365832
1.93797195 0.52430183 -0.31213349
1.94107556 0.15437762 0.44113269
1.88147521 0.51163095 0.51244026
1.95721030 0.15631376 0.30510172
1.88614762 0.50978112 0.37269661
1.97125995 0.15706962 0.16995369
1.89776337 0.51049906 0.23669893
1.97836220 0.15762247 0.03403219
1.91431749 0.51357859 0.10205511
1.99344385 0.15845932 -0.10297099
1.92894399 0.51646197 -0.03425035
1.99645054 0.15800032 -0.24126253
1.92917633 0.51687318 -0.17135428
2.00925589 0.15760227 -0.38461146
1.93888414 0.52091861 -0.31213349
1.94185746 0.14421211 0.44113269
1.87937653 0.50084639 0.51114786
1.95061409 0.14551991 0.30392975
1.88870370 0.50022799 0.37269661
1.96954608 0.14690739 0.16973580
1.90760469 0.50246835 0.23761165
1.98412025 0.14797410 0.03411945
1.91939354 0.50418812 0.10218595
1.99422038 0.14836761 -0.10297099
1.92911696 0.50605226 -0.03420671
1.99972534 0.14772525 -0.24156678
1.93176770 0.50710219 -0.17135428
2.00513244 0.14707619 -0.38365832
1.93919837 0.51012582 -0.31174287
1.94208145 0.14116168 0.44113269
1.88024783 0.49756551 0.51114786
1.95332813 0.14229220 0.30432039
1.89431787 0.49819040 0.37364981
1.97476757 0.14382665 0.17017159
1.90847874 0.49913821 0.23761165
1.98188245 0.14433180 0.03407582
1.92268479 0.50147301 0.10231679
1.98949587 0.14452983 -0.10270931
1.93724978 0.50459135 -0.03433761
1.99502969 0.14388262 -0.24095827
1.92783272 0.50246251 -0.17091937
2.01028204 0.14392217 -0.38461146
1.94247365 0.50737005 -0.31213349
1.94767833 0.13097402 0.44225660
1.88516366 0.48832497 0.51179403
1.96143770 0.13255492 0.30549237
1.89690042 0.48826501 0.37364981
1.97052360 0.13315390 0.16973580
1.90866339 0.48851770 0.23730740
1.98261094 0.13395275 0.03407582
1.92286670 0.49077606 0.10218595
1.99273980 0.13392857 -0.10284015
1.93018210 0.49194941 -0.03416308
2.00566006 0.13408735 -0.24217525
1.93052304 0.49202466 -0.17091937
2.01345706 0.13355450 -0.38508809
1.94510341 0.49719238 -0.31213349
1.94547284 0.12741770 0.44169462
1.88133812 0.48381972 0.51050162
1.95920217 0.12897159 0.30510172
1.89070523 0.48278391 0.37222004
1.97572362 0.13003677 0.17017159
1.90951312 0.48518574 0.23730740
1.98785329 0.13046877 0.03416308
1.93097627 0.48927554 0.10257847
2.00044489 0.13093241 -0.10323267
1.93830323 0.49043587 -0.03429398
2.00836730 0.13074546 -0.24247949
1.93137884 0.48865449 -0.17091937
2.01858521 0.13035177 -0.38604125
1.94596815 0.49379680 -0.31213349
1.95099723 0.11717712 0.44281852
1.88158751 0.47303924 0.50985545
1.96233594 0.11851589 0.30549237
1.89082730 0.47227728 0.37174344
1.97639811 0.11934523 0.17017159
1.90970349 0.47424358 0.23700316
1.98850918 0.12005865 0.03416308
1.92148530 0.47579256 0.10192427
1.99861073 0.12030872 -0.10310183
1.93365300 0.47812483 -0.03416308
2.01895404 0.12045903 -0.24369647
1.93632722 0.47913894 -0.17113683
2.01681137 0.11928577 -0.38556468
1.94613183 0.48300070 -0.31174287
1.94631493 0.11383274 0.44169462
1.88943553 0.47152567 0.51179403
1.95758939 0.11514817 0.30471104
1.89640999 0.47016883 0.37269661
1.98406243 0.11632568 0.17082526
1.91526175 0.47244304 0.23761165
1.98871565 0.11658788 0.03416308
1.92707622 0.47397739 0.10218595
2.00131011 0.11696358 -0.10323267
1.93691063 0.47535053 -0.03420671
2.01914072 0.11728751 -0.24369647
1.93716061 0.47575867 -0.17113683
2.02436709 0.11618042 -0.38699445
1.94936824 0.48019946 -0.31213349
1.94931698 0.10376742 0.44225660
1.88476384 0.46022081 0.50985545
1.95816553 0.10489673 0.30471104
1.89638197 0.45998013 0.37222004
1.97716475 0.10588966 0.17017159
1.91770935 0.46240830 0.23761165
1.99177647 0.10665188 0.03420671
1.92467940 0.46270251 0.10192427
1.99938321 0.10670193 -0.10310183
1.93443334 0.46436286 -0.03411945
2.02220511 0.10684232 -0.24400067
1.93954372 0.46594778 -0.17113683
2.02247810 0.10580685 -0.38651785
1.94705701 0.46881890 -0.31135219
1.95677638 0.10107505 0.44394243
1.89494705 0.45922828 0.51244026
1.96820998 0.10198037 0.30627367
1.89956641 0.45724958 0.37269661
1.97983372 0.10256513 0.17038947
1.91610122 0.45847747 0.23730740
1.98696673 0.10292161 0.03411945
1.92791116 0.45992753 0.10205511
1.99956644 0.10321219 -0.10310183
1.93524086 0.46098590 -0.03411945
2.01495385 0.10294002 -0.24308796
1.93793273 0.46197885 -0.17091937
2.02511096 0.10239840 -0.38699445
1.94787228 0.46541995 -0.31135219
1.95729458 0.09048644 0.44394243
1.88558197 0.44648942 0.50920922
1.96378362 0.09144860 0.30549237
1.89954710 0.44672981 0.37222004
1.97785580 0.09208398 0.17017159
1.92089069 0.44900903 0.23761165
1.99247253 0.09274417 0.03420671
1.92786276 0.44925451 0.10192427
2.00258970 0.09250485 -0.10323267
1.93519485 0.45027471 -0.03407582
2.02785969 0.09294472 -0.24460918
1.94525278 0.45262688 -0.17135428
2.01336074 0.09124979 -0.38461146
1.95508933 0.45634818 -0.31213349
1.96961808 0.08759934 0.44675222
1.88635838 0.44319773 0.50920922
1.95653951 0.08769660 0.30432039
1.90040123 0.44308212 0.37222004
1.98298979 0.08884996 0.17060737
1.91683948 0.44452330 0.23700316
1.99514425 0.08902776 0.03425035
1.92864394 0.44588909 0.10192427
2.00025392 0.08890107 -0.10310183
1.93597782 0.44689646 -0.03407582
2.02553964 0.08929835 -0.24430493
1.93876350 0.44753382 -0.17070192
2.03068042 0.08846704 -0.38794762
1.95107400 0.45181000 -0.31135219
1.97006333 0.07694146 0.44675222
1.88872874 0.43298516 0.50920922
1.96192026 0.07729905 0.30510172
1.90030324 0.43257517 0.37174344
1.98344147 0.07811971 0.17060737
1.91679752 0.43359262 0.23669893
1.99558306 0.07858004 0.03425035
1.92859387 0.43489280 0.10179343
2.00069189 0.07842660 -0.10310183
1.93836737 0.43641531 -0.03407582
2.02847290 0.07843140 -0.24460918
1.94350851 0.43792942 -0.17091937
2.02622437 0.07729633 -0.38699445
1.95341301 0.44158801 -0.31135219
1.96287823 0.07358027 0.44506633
1.88948154 0.42968804 0.50920922
1.96697450 0.07439901 0.30588302
1.90823317 0.43089655 0.37317321
1.97859704 0.07447531 0.17017159
1.91747630 0.43058118 0.23669893
1.99571705 0.07509697 0.03425035
1.92927468 0.43186286 0.10179343
2.00581551 0.07511670 -0.10336351
1.93912613 0.43303159 -0.03407582
2.03107333 0.07533462 -0.24491341
1.94669914 0.43508551 -0.17113683
2.01654577 0.07341206 -0.38508809
1.94936430 0.43708643 -0.31057090
1.97054124 0.06352998 0.44675222
1.89398873 0.42064840 0.50985545
1.96240091 0.06394300 0.30510172
1.90320361 0.41963029 0.37174344
1.98641646 0.06469581 0.17082526
1.91485906 0.41946211 0.23609044
1.99856997 0.06507377 0.03429398
1.93150949 0.42175531 0.10179343
2.00867677 0.06469128 -0.10349435
1.93885195 0.42267323 -0.03403219
2.02895975 0.06462231 -0.24460918
1.94895065 0.42488670 -0.17113683
2.03651547 0.06380065 -0.38890082
1.95403719 0.42740682 -0.31096154
1.97308421 0.06016249 0.44731417
1.88764811 0.41576654 0.50791681
1.96991408 0.06073892 0.30627367
1.90879858 0.41703466 0.37269661
1.98901582 0.06130308 0.17104314
1.91801190 0.41665184 0.23639469
1.99619281 0.06116252 0.03425035
1.93712020 0.41945150 0.10205511
2.00878668 0.06118538 -0.10349435
1.94202876 0.41982245 -0.03407582
2.01914787 0.06079175 -0.24339221
1.94968915 0.42148453 -0.17113683
1.94995630 0.42293778 -0.31018025
1.98068678 0.04966225 0.44900003
1.89695024 0.40708464 0.50985545
1.97515106 0.05020048 0.30705500
1.91095603 0.40703452 0.37269661
1.98682857 0.05047978 0.17082526
1.91781163 0.40574908 0.23609044
2.00648117 0.05095398 0.03442487
1.93447793 0.40792304 0.10179343
2.01656699 0.05084829 -0.10388687
1.94182694 0.40878841 -0.03403219
2.02937031 0.05010185 -0.24460918
1.95186937 0.41127023 -0.17113683
1.95697343 0.41375473 -0.31096154
1.97102070 0.04633157 0.44675222
1.89057493 0.40224829 0.50791681
1.98263335 0.04726722 0.30822694
1.90926361 0.40318590 0.37222004
1.99438310 0.04718154 0.17147893
1.92087388 0.40325156 0.23639469
1.99907005 0.04728180 0.03429398
1.93267393 0.40436694 0.10166259
2.00666881 0.04710383 -0.10336351
1.94987464 0.40694749 -0.03416308
2.01704240 0.04663907 -0.24308796
1.95745766 0.40889263 -0.17157173
1.96493948 0.41187495 -0.31213349
1.98097897 0.03617910 0.44900003
1.89731359 0.39366677 0.50920922
1.97297800 0.03671147 0.30666435
1.90407205 0.39201528 0.37079024
1.99459624 0.03708649 0.17147893
1.92538881 0.39369118 0.23669893
1.99428523 0.03707492 0.03420671
1.93231952 0.39373785 0.10153175
2.01687288 0.03676888 -0.10388687
1.94456434 0.39556143 -0.03403219
2.01974010 0.03611928 -0.24339221
1.95225358 0.39713159 -0.17091937
1.96465087 0.40108147 -0.31174287
1.97616756 0.03264590 0.44787613
1.89563358 0.38986254 0.50856304
1.98044586 0.03338557 0.30783629
1.90722477 0.38885504 0.37126684
1.98469746 0.03344700 0.17060737
1.92607307 0.39033014 0.23669893
2.00185084 0.03336388 0.03433761
1.93789566 0.39136446 0.10179343
2.01693392 0.03324872 -0.10388687
1.94525182 0.39216691 -0.03403219
2.02476215 0.03266947 -0.24400067
1.95294380 0.39372370 -0.17091937
1.96050954 0.39666143 -0.31096154
1.96900761 0.02187941 0.44619027
1.90244913 0.38055938 0.50985545
1.97565937 0.02261817 0.30705500
1.91164052 0.37934694 0.37174344
1.99730098 0.02283872 0.17169681
1.92328978 0.37893265 0.23609044
2.00449729 0.02290798 0.03438124
1.93753636 0.38038713 0.10166259
2.01957679 0.02271337 -0.10401771
1.95224881 0.38260913 -0.03411945
2.02987194 0.02176253 -0.24460918
1.96230710 0.38494784 -0.17157173
1.96255958 0.38639081 -0.31096154
1.98121905 0.01889064 0.44900003
1.90311050 0.37723836 0.50985545
1.98556912 0.01960270 0.30861759
1.91229975 0.37600991 0.37174344
1.99484742 0.01933100 0.17147893
1.92144847 0.37542960 0.23578621
2.00953341 0.01945307 0.03446850
1.93568194 0.37686041 0.10153175
2.01212382 0.01912446 -0.10362519
1.95291364 0.37920123 -0.03411945
2.02494097 0.01853328 -0.24400067
1.96053219 0.38104162 -0.17135428
1.95838594 0.38200819 -0.31018025
1.97398305 0.00849255 0.44731417
1.90262508 0.36713779 0.50920922
1.98811400 0.00921512 0.30900827
1.91417837 0.36632612 0.37174344
1.99990070 0.00925222 0.17191470
1.92582452 0.36583257 0.23609044
2.00960612 0.00928170 0.03446850
1.94008064 0.36719006 0.10166259
2.02218127 0.00897485 -0.10414855
1.95726299 0.36978149 -0.03416308
2.02501011 0.00793051 -0.24400067
1.96488178 0.37158203 -0.17157173
1.97005916 0.37361157 -0.31174287
1.97886586 0.00540032 0.44843808
1.90089202 0.36335739 0.50856304
1.99059629 0.00574993 0.30939892
1.90999460 0.36205906 0.37079024
1.99991393 0.00576172 0.17191470
1.93133521 0.36339992 0.23669893
2.01211882 0.00577906 0.03451213
1.94317114 0.36426905 0.10179343
2.01969719 0.00544110 -0.10401771
1.94808185 0.36450335 -0.03398856
2.03246522 0.00440528 -0.24491341
1.95573962 0.36629564 -0.17070192
1.97070825 0.37017262 -0.31174287
1.97155809 -0.00527962 0.44675222
1.90751529 0.35429284 0.50985545
1.99553776 -0.00468921 0.31018025
1.91910172 0.35340405 0.37222004
1.99244511 -0.00468505 0.17126103
1.93321145 0.35328254 0.23669893
2.00962186 -0.00474811 0.03446850
1.94014156 0.35318407 0.10153175
2.02718663 -0.00551399 -0.10441023
1.94750524 0.35384575 -0.03394493
2.02997899 -0.00622673 -0.24460918
1.95524359 0.35525787 -0.17048445
1.96533501 0.35850284 -0.31057090
1.97641778 -0.00874698 0.44787613
1.90575647 0.35052046 0.50920922
1.99305701 -0.00815958 0.30978957
1.91495001 0.34882787 0.37126684
2.00239563 -0.00821294 0.17213258
1.92894363 0.34901288 0.23609044
2.00710964 -0.00859321 0.03442487
1.93584311 0.34890026 0.10127007
2.02467728 -0.00903858 -0.10427939
1.94812000 0.35044616 -0.03394493
2.02500224 -0.00974112 -0.24400067
1.95586073 0.35184479 -0.17048445
1.97324455 0.35640556 -0.31174287
1.97390580 -0.01941390 0.44731417
1.90762496 0.34020424 0.50920922
1.98310733 -0.01883945 0.30822694
1.91675019 0.33879644 0.37126684
1.99983168 -0.01902069 0.17191470
1.93080378 0.33857125 0.23609044
2.01453543 -0.01918077 0.03455576
1.94753575 0.34016225 0.10179343
2.01711297 -0.01955985 -0.10388687
1.95737207 0.34120554 -0.03407582
2.02491975 -0.02069724 -0.24400067
1.95767617 0.34159917 -0.17048445
1.96778977 0.34477359 -0.31057090
1.98361623 -0.02263522 0.44956198
1.90821600 0.33687431 0.50920922
1.98060596 -0.02192475 0.30783629
1.91975486 0.33587927 0.37174344
1.99730504 -0.02248060 0.17169681
1.93133318 0.33553791 0.23609044
2.00950003 -0.02263569 0.03446850
1.93823159 0.33537713 0.10127007
2.02206874 -0.02314222 -0.10414855
1.95057774 0.33649686 -0.03394493
2.02984738 -0.02394118 -0.24460918
1.95826924 0.33818185 -0.17048445
1.97568464 0.34262115 -0.31174287
1.97616339 -0.03289223 0.44787613
1.90989661 0.32721171 0.50920922
1.98540199 -0.03238016 0.30861759
1.91901183 0.32574183 0.37126684
2.00712609 -0.03276166 0.17256837
1.93061769 0.32500327 0.23578621
2.01935673 -0.03297911 0.03464302
1.93996119 0.32522401 0.10127007
2.02191973 -0.03372939 -0.10414855
1.95964921 0.32787430 -0.03407582
2.03713703 -0.03470287 -0.24552189
1.96246862 0.32834044 -0.17070192
1.96771467 0.33061275 -0.31018025
1.98097420 -0.03643562 0.44900003
1.91046476 0.32387778 0.50920922
1.98534238 -0.03584529 0.30861759
1.91963375 0.32205698 0.37126684
2.01204610 -0.03635946 0.17300415
1.94096887 0.32328677 0.23700316
2.01179218 -0.03671197 0.03451213
1.94298804 0.32225186 0.10140091
2.02185798 -0.03725825 -0.10414855
1.95528805 0.32362586 -0.03398856
2.02963090 -0.03811149 -0.24460918
1.96549475 0.32532710 -0.17091937
1.97802842 0.32882005 -0.31174287
1.98318338 -0.04721350 0.44956198
1.91933608 0.31472605 0.51114786
1.99005651 -0.04670710 0.30939892
1.92613661 0.31279972 0.37222004
2.00186086 -0.04700169 0.17213258
1.94024062 0.31238031 0.23669893
2.01157260 -0.04724514 0.03451213
1.94716716 0.31213549 0.10153175
2.01913929 -0.04778267 -0.10401771
1.95947778 0.31344256 -0.03403219
2.03931737 -0.04934167 -0.24582614
1.96717131 0.31503138 -0.17091937
1.97241175 0.31726530 -0.31057090
1.98310673 -0.05032862 0.44956198
1.91273344 0.31019861 0.50920922
1.98998070 -0.04983302 0.30939892
1.92667961 0.30943748 0.37222004
2.00426531 -0.05056072 0.17235048
1.93582976 0.30853960 0.23609044
2.02148199 -0.05101765 0.03468665
1.94519031 0.30867955 0.10140091
2.02404404 -0.05143824 -0.10427939
1.95755386 0.30962595 -0.03398856
2.03923750 -0.05254496 -0.24582614
1.96771812 0.31159753 -0.17091937
1.97296262 0.31382233 -0.31057090
1.98281598 -0.06071141 0.44956198
1.91427886 0.30051345 0.50920922
1.98475635 -0.06009754 0.30861759
