2.71932507 0.35136008 0.72439539
2.81203222 0.35905725 0.54379392
2.92953897 0.37013555 0.35778654
3.02920532 0.38075489 0.15818542
2.72232890 0.34692281 0.72504157
2.81271648 0.35365787 0.54379392
2.92279506 0.36409020 0.35687381
3.03481960 0.37608883 0.15844710
2.72656298 0.33248496 0.72568780
2.81940198 0.33952051 0.54474711
2.92472219 0.34827113 0.35687381
3.03680992 0.35966346 0.15844710
2.72234464 0.32714131 0.72439539
2.81999016 0.33459923 0.54474711
2.92532563 0.34316599 0.35687381
3.03247452 0.35377669 0.15818542
2.72881770 0.31344205 0.72568780
2.81926560 0.31954890 0.54427052
2.92954803 0.32812449 0.35717806
3.03180432 0.33761388 0.15805459
2.72456217 0.30812794 0.72439539
2.81738019 0.31435174 0.54379392
2.92266178 0.32269382 0.35626537
3.03233123 0.33285108 0.15805459
2.73568964 0.29538718 0.72698021
2.83113503 0.30140662 0.54617691
2.93418097 0.30843946 0.35748231
3.03403211 0.31696936 0.15805459
2.72659636 0.28957546 0.72439539
2.82194662 0.29493433 0.54427052
2.93224692 0.30305895 0.35717806
3.03458071 0.31167349 0.15805459
2.72331834 0.27432665 0.72310299
2.82833576 0.28064728 0.54522371
2.93631291 0.28743520 0.35748231
3.04119182 0.29574105 0.15831625
2.72619605 0.26981512 0.72374922
2.81661010 0.27450028 0.54284072
2.93676090 0.28282249 0.35748231
3.03668261 0.29048070 0.15805459
2.71791053 0.25509405 0.72116441
2.82040715 0.26047036 0.54331732
2.93325973 0.26698425 0.35687381
3.04064822 0.27480522 0.15818542
2.71594667 0.25012439 0.72051817
2.82823300 0.25573000 0.54474711
2.93372107 0.26186439 0.35687381
3.03863645 0.26927376 0.15805459
2.72688293 0.23627646 0.72310299
2.81975341 0.24006924 0.54284072
2.92767787 0.24535438 0.35596111
3.04502439 0.25325057 0.15831625
2.71766686 0.23068324 0.72051817
2.81772304 0.23493956 0.54236418
2.92805982 0.24075530 0.35596111
3.03795481 0.24784695 0.15792374
2.72602081 0.21751361 0.72245675
2.82376885 0.22106592 0.54331732
2.92433214 0.22503224 0.35535261
3.04169965 0.23213063 0.15805459
2.72639632 0.21275547 0.72245675
2.82663441 0.21583509 0.54379392
2.92719483 0.22011794 0.35565686
3.04707909 0.22720024 0.15831625
2.72991633 0.19818018 0.72310299
2.82283044 0.20067592 0.54284072
2.92834282 0.20427714 0.35565686
3.04826355 0.21071072 0.15831625
2.72062278 0.19271620 0.72051817
2.82562470 0.19592263 0.54331732
2.92621946 0.19899367 0.35535261
3.04115486 0.20487553 0.15792374
2.73123312 0.17911710 0.72310299
2.82906032 0.18128601 0.54379392
2.93217421 0.18398790 0.35596111
3.04966021 0.18942487 0.15831625
2.73154187 0.17434992 0.72310299
2.82447433 0.17603475 0.54284072
2.93493605 0.17953724 0.35626537
3.04995394 0.18463422 0.15831625
2.73238921 0.16052218 0.72310299
2.82287931 0.16159236 0.54236418
2.94079041 0.16445234 0.35687381
3.04589391 0.16837916 0.15805459
2.74230862 0.15631919 0.72568780
2.83053470 0.15659121 0.54379392
2.94602823 0.15959562 0.35748231
3.04618311 0.16306284 0.15805459
2.73829103 0.14122267 0.72439539
2.83131576 0.14176847 0.54379392
2.93693566 0.14315511 0.35626537
3.04702091 0.14657909 0.15805459
2.74335694 0.13669181 0.72568780
2.82910800 0.13670424 0.54331732
2.94459200 0.13890396 0.35717806
3.05472827 0.14215200 0.15844710
2.73918891 0.12258058 0.72439539
2.83957052 0.12282333 0.54522371
2.94279981 0.12337647 0.35687381
3.04794788 0.12583543 0.15805459
2.74422359 0.11801535 0.72568780
2.84715676 0.11768752 0.54665345
2.94548988 0.11834361 0.35717806
3.05065751 0.12061794 0.15818542
2.74240899 0.10307121 0.72504157
2.84282875 0.10259330 0.54570031
2.94360733 0.10231525 0.35687381
3.05875063 0.10437723 0.15857795
2.74258471 0.09828464 0.72504157
2.84790850 0.09780792 0.54665345
2.94128466 0.09760515 0.35656956
3.05641508 0.09948747 0.15844710
2.74546051 0.08448036 0.72568780
2.83855534 0.08308896 0.54474711
2.94919634 0.08242290 0.35748231
3.05939007 0.08355471 0.15857795
2.74560380 0.07968849 0.72568780
2.83378983 0.07799157 0.54379392
2.94189405 0.07706890 0.35656956
3.05703545 0.07814741 0.15844710
2.74115515 0.06518846 0.72439539
2.83906627 0.06327023 0.54474711
2.93729615 0.06155247 0.35596111
3.05241084 0.06203089 0.15818542
2.73643613 0.06028951 0.72310299
2.83672881 0.05776554 0.54427052
2.93491817 0.05637430 0.35565686
3.05750656 0.05680355 0.15844710
2.73189330 0.04539464 0.72181058
2.83699274 0.04291174 0.54427052
2.93766141 0.04053222 0.35596111
3.05527282 0.04022350 0.15831625
2.73196840 0.04062652 0.72181058
2.84687877 0.03810753 0.54617691
2.93772125 0.03591771 0.35596111
3.06032515 0.03548960 0.15857795
2.73455358 0.02682614 0.72245675
2.83967304 0.02362451 0.54474711
2.95027542 0.02064152 0.35748231
3.05797219 0.01944575 0.15844710
2.73942614 0.02210062 0.72374922
2.84216714 0.01819239 0.54522371
2.95030713 0.01549229 0.35748231
3.06299472 0.01413906 0.15870878
2.73950577 0.00727864 0.72374922
2.84713197 0.00332437 0.54617691
2.94290352 -0.00048095 0.35656956
3.05803323 -0.00243695 0.15844710
2.74434423 0.00250994 0.72504157
2.84222507 -0.00164996 0.54522371
2.94289923 -0.00510365 0.35656956
3.06052208 -0.00724267 0.15857795
2.74432158 -0.01138041 0.72504157
2.84954262 -0.01606523 0.54665345
2.95027637 -0.02055277 0.35748231
3.07042813 -0.02332836 0.15910131
2.73946786 -0.01614990 0.72374922
2.85441470 -0.02156505 0.54760665
2.95023608 -0.02570194 0.35748231
3.06289363 -0.02862841 0.15870878
2.73692536 -0.03094835 0.72310299
2.84444642 -0.03640071 0.54570031
2.95749736 -0.04175734 0.35839504
3.06519008 -0.04523287 0.15883961
2.74894142 -0.03586213 0.72633404
2.84683275 -0.04139685 0.54617691
2.95990109 -0.04695459 0.35869926
3.06510639 -0.05058256 0.15883961
2.74389505 -0.04969601 0.72504157
2.85394812 -0.05593771 0.54760665
2.95466352 -0.06183920 0.35809079
3.06980324 -0.06619596 0.15910131
2.74863362 -0.05457260 0.72633404
2.84892797 -0.06131914 0.54665345
2.96199393 -0.06715316 0.35900351
3.06718707 -0.07149921 0.15897046
2.74346924 -0.06932948 0.72504157
2.85102105 -0.07629686 0.54713005
2.95662594 -0.08304638 0.35839504
3.07174683 -0.08822910 0.15923214
2.75058722 -0.07430096 0.72698021
2.85333705 -0.08133867 0.54760665
2.95647645 -0.08820654 0.35839504
3.07158828 -0.09359017 0.15923214
2.75016046 -0.08870192 0.72698021
2.85532498 -0.09635632 0.54808331
2.96093416 -0.10385161 0.35900351
3.07105589 -0.10967161 0.15923214
2.74758744 -0.09342375 0.72633404
2.86005783 -0.10150582 0.54903644
2.96076727 -0.10850251 0.35900351
2.75431943 -0.10759983 0.72827262
2.85215068 -0.11569402 0.54760665
2.96759677 -0.12430354 0.35991624
2.74688792 -0.11212368 0.72633404
2.85682726 -0.12136994 0.54855984
2.74865389 -0.12709151 0.72698021
2.75325274 -0.13211194 0.72827262
2.73389411 0.66845512 0.64118779
2.84742355 0.69663829 0.45823854
2.73747087 0.65365362 0.64118779
2.81980658 0.67427510 0.45316002
2.73860741 0.64887488 0.64118779
2.82818818 0.67105806 0.45433202
2.73733068 0.63295382 0.64006382
2.82696533 0.65463531 0.45355070
2.74307084 0.62974006 0.64118779
2.84002447 0.65295243 0.45550397
2.92492366 0.67186892 0.25950623
2.74633050 0.61536878 0.64118779
2.83617520 0.63645601 0.45433202
2.95259070 0.66249305 0.26168510
2.74967217 0.61158144 0.64174974
2.83487105 0.63097006 0.45394135
2.94401717 0.65518087 0.26081356
2.74828243 0.59518701 0.64062583
2.84307051 0.61666638 0.45472264
2.94508505 0.63871640 0.26059568
2.74921393 0.59086925 0.64062583
2.83679271 0.61064565 0.45355070
2.94619513 0.63357532 0.26059568
2.74988532 0.57596856 0.64006382
2.84236789 0.59628934 0.45394135
2.95180178 0.61916494 0.26081356
2.74373007 0.56968755 0.63837802
2.83856869 0.59032524 0.45316002
2.95043945 0.61350673 0.26059568
2.75154829 0.55579567 0.63950193
2.84414148 0.57544661 0.45355070
2.94883275 0.59654987 0.26015988
2.75002909 0.55099589 0.63893998
2.84262061 0.57049406 0.45316002
2.94986939 0.59140223 0.26015988
2.74570251 0.53519613 0.63725412
2.84314513 0.55513084 0.45276940
2.95282507 0.57646412 0.26015988
2.74653983 0.53088248 0.63725412
2.84653401 0.55063510 0.45316002
2.95871758 0.57225233 0.26059568
2.75655556 0.51735765 0.63893998
2.84452438 0.53481394 0.45237872
2.95432973 0.55537713 0.25994200
2.75026846 0.51121521 0.63725412
2.84545350 0.52984846 0.45237872
2.96019197 0.55112845 0.26037779
2.76018691 0.49761912 0.63893998
2.84341764 0.51357085 0.45159739
2.95822811 0.53422230 0.25994200
2.74897337 0.49114883 0.63613021
2.84665179 0.50953722 0.45198807
2.96651196 0.53036863 0.26059568
2.75630879 0.47757706 0.63725412
2.85171437 0.49504602 0.45237872
2.96425009 0.51449841 0.26015988
2.75713801 0.47276568 0.63725412
2.85500765 0.49048457 0.45276940
2.96268868 0.50890398 0.25994200
2.76205873 0.45823824 0.63781601
2.85761976 0.47503036 0.45276940
2.96294188 0.49246016 0.25972411
2.76517916 0.45429236 0.63837802
2.86323571 0.47133994 0.45355070
2.96625447 0.48769054 0.25994200
2.76030183 0.43866581 0.63669217
2.87054205 0.45711517 0.45433202
2.95638609 0.47072068 0.25885257
2.76106334 0.43384746 0.63669217
2.88109350 0.45363420 0.45589465
2.96212435 0.46633157 0.25928834
2.77300525 0.42035612 0.63893998
2.88350558 0.43803942 0.45589465
2.95967865 0.44955334 0.25885257
2.76643419 0.41492084 0.63725412
2.88426590 0.43300611 0.45589465
2.96784830 0.44549143 0.25950623
2.77346087 0.40064019 0.63837802
2.88160539 0.41719386 0.45511332
2.96027994 0.42852491 0.25863466
2.76685166 0.39525473 0.63669217
2.87981272 0.41231856 0.45472264
2.96102357 0.42335758 0.25863466
2.76405621 0.38010177 0.63556820
2.87948585 0.39689881 0.45433202
2.96312857 0.40836513 0.25863466
2.75982165 0.37510678 0.63444436
2.87527990 0.39120996 0.45355070
2.96630454 0.40352702 0.25885257
2.76428962 0.36000016 0.63500631
2.87245727 0.37501147 0.45276940
2.96844459 0.38747191 0.25885257
2.76243496 0.35534847 0.63444436
2.87059355 0.37018481 0.45237872
2.96170497 0.38134107 0.25819889
2.76909375 0.34147248 0.63556820
2.86513996 0.35424536 0.45120677
2.97595692 0.36786544 0.25928834
2.76484847 0.33605453 0.63444436
2.85839963 0.34835291 0.45003480
2.97906685 0.36297047 0.25950623
2.77146649 0.32164872 0.63556820
2.86514854 0.33345011 0.45081612
2.97851300 0.34656069 0.25928834
2.76954794 0.31701958 0.63500631
2.86812210 0.32922912 0.45120677
2.98653674 0.34220746 0.25994200
2.76874781 0.30225131 0.63444436
2.87226129 0.31447428 0.45159739
2.98080301 0.32627875 0.25928834
2.77406359 0.29841951 0.63556820
2.86789560 0.30893514 0.45081612
2.98136806 0.32107577 0.25928834
2.77563739 0.28340608 0.63556820
2.86947346 0.29391471 0.45081612
2.97557497 0.30470467 0.25863466
2.77855206 0.27880275 0.63613021
2.86752510 0.28866044 0.45042545
2.97362399 0.29926306 0.25841677
2.77759457 0.26353693 0.63556820
2.87150335 0.27337384 0.45081612
2.98015857 0.28363866 0.25885257
2.78285646 0.25962278 0.63669217
2.87438822 0.26909146 0.45120677
2.97320962 0.27774671 0.25819889
2.77932405 0.24462450 0.63556820
2.88559699 0.25490019 0.45276940
2.98698235 0.26378193 0.25928834
2.78702831 0.24039626 0.63725412
2.88603759 0.24986346 0.45276940
2.98247528 0.25814193 0.25885257
2.78585982 0.22511902 0.63669217
2.88734722 0.23424491 0.45276940
2.98134613 0.24180175 0.25863466
2.78135300 0.22036131 0.63556820
2.89755797 0.23048589 0.45433202
2.99169469 0.23737960 0.25950623
2.78246856 0.20579524 0.63556820
2.88641214 0.21440484 0.45237872
2.98789024 0.22186860 0.25907043
2.78521800 0.20159847 0.63613021
2.88924479 0.20954373 0.45276940
2.98827291 0.21665341 0.25907043
2.78383756 0.18636507 0.63556820
2.89276576 0.19457693 0.45316002
2.99185157 0.20116946 0.25928834
2.78898883 0.18230642 0.63669217
2.89556527 0.18968759 0.45355070
2.98722744 0.19562507 0.25885257
2.78263903 0.16678180 0.63500631
2.88172936 0.17364269 0.45120677
2.99318290 0.18027766 0.25928834
2.79022193 0.16234434 0.63669217
2.88202810 0.16861287 0.45120677
2.99597931 0.17519711 0.25950623
2.78376126 0.14686555 0.63500631
2.67973971 0.65587264 0.72891885
2.87796640 0.15275873 0.45042545
2.79750776 0.68030030 0.55237263
3.00185728 0.15924548 0.25994200
2.78155541 0.14236984 0.63444436
2.68322611 0.65176857 0.72956502
2.88316083 0.14798535 0.45120677
2.77484345 0.66962093 0.54760665
3.00461817 0.15413201 0.26015988
2.78958559 0.12764712 0.63613021
2.68425322 0.63714868 0.72891885
2.87896276 0.13266318 0.45042545
2.79025006 0.65791816 0.54998964
3.00787210 0.13851079 0.26037779
2.89665437 0.67895639 0.36052471
2.78978252 0.12326510 0.63613021
2.68301129 0.63190514 0.72827262
2.88163447 0.12824889 0.45081612
2.78422785 0.65135854 0.54855984
3.00313282 0.13304359 0.25994200
2.86147809 0.66591239 0.35596111
3.01291800 0.69920522 0.16027886
2.79525852 0.10884240 0.63725412
2.68617511 0.61831713 0.72827262
2.87979913 0.11306378 0.45042545
2.78748894 0.63725793 0.54855984
3.00874496 0.11803381 0.26037779
2.88911462 0.65645617 0.35900351
2.99219728 0.67786777 0.15897046
2.79300976 0.10387473 0.63669217
2.68725038 0.61362797 0.72827262
2.88739491 0.10831014 0.45159739
2.78392243 0.63081282 0.54760665
2.99899149 0.11241561 0.25950623
2.89025569 0.65141273 0.35900351
3.00311589 0.67484826 0.15949382
2.78622651 0.08853465 0.63500631
2.69524384 0.60013741 0.72956502
2.88300228 0.09253120 0.45081612
2.79676867 0.61836243 0.54951304
3.00951266 0.09650085 0.26037779
2.89616060 0.63630170 0.35930774
3.00672317 0.65859008 0.15949382
2.79366684 0.08437347 0.63669217
2.68921494 0.59385800 0.72762638
2.88314438 0.08800249 0.45081612
2.78825831 0.61136216 0.54760665
2.99722958 0.09087871 0.25928834
2.89473295 0.63121921 0.35900351
3.00043750 0.65226442 0.15910131
2.79650569 0.06980387 0.63725412
2.69690657 0.58126485 0.72891885
2.88356543 0.07290523 0.45081612
2.79371619 0.59775919 0.54808331
3.00512028 0.07589111 0.25994200
2.89557195 0.61553419 0.35869926
3.00136995 0.63602406 0.15897046
2.79175234 0.06481326 0.63613021
2.68847346 0.57452220 0.72633404
2.90096855 0.06826752 0.45355070
2.79005837 0.59136891 0.54713005
3.00275850 0.07058914 0.25972411
2.89421439 0.60996389 0.35839504
3.00247550 0.63078469 0.15897046
2.79936910 0.04983254 0.63781601
2.70336032 0.56244743 0.72956502
2.90376449 0.05261394 0.45394135
2.79792213 0.57775259 0.54808331
3.00558639 0.05438516 0.25994200
2.89504242 0.59379351 0.35809079
3.01318026 0.61604172 0.15936297
2.80187988 0.04547308 0.63837802
2.69488049 0.55576116 0.72698021
2.89643693 0.04793502 0.45276940
2.79411912 0.57187635 0.54713005
3.00318670 0.04910022 0.25972411
2.89840221 0.58974385 0.35839504
3.00191402 0.60880852 0.15870878
2.81182337 0.03090225 0.64062583
2.70239258 0.54307371 0.72827262
2.90405536 0.03284758 0.45394135
2.80178976 0.55869448 0.54808331
3.00588703 0.03392567 0.25994200
2.89901710 0.57407403 0.35809079
3.00750899 0.59356934 0.15883961
2.80212450 0.02640038 0.63837802
2.70333600 0.53835624 0.72827262
2.90410829 0.02777900 0.45394135
2.80035377 0.55332392 0.54760665
3.00843215 0.02870153 0.26015988
2.89271188 0.56756878 0.35717806
3.00364184 0.58735389 0.15857795
2.81197047 0.01127143 0.64062583
2.71085835 0.52512091 0.72956502
2.91162181 0.01259996 0.45511332
2.80803084 0.53958780 0.54855984
3.00356030 0.01293084 0.25972411
2.90295410 0.55382127 0.35809079
3.00912809 0.57208872 0.15870878
2.80467749 0.00635212 0.63893998
2.71177053 0.52038884 0.72956502
2.90670109 0.00750873 0.45433202
2.81147194 0.53465819 0.54903644
3.00606847 0.00769341 0.25994200
2.89904141 0.54782474 0.35748231
3.00766921 0.56637031 0.15857795
2.79979873 -0.00880395 0.63781601
2.71217322 0.50526285 0.72891885
2.90669918 -0.00821807 0.45433202
2.81423283 0.51993006 0.54903644
3.00606608 -0.00857102 0.25994200
2.89708281 0.53122878 0.35687381
3.01068950 0.55008900 0.15857795
2.79247332 -0.01316231 0.63613021
2.70830226 0.49964404 0.72762638
2.90915179 -0.01279639 0.45472264
2.81272244 0.51457196 0.54855984
3.00604653 -0.01381758 0.25994200
2.89547276 0.52622986 0.35656956
3.01400590 0.54580772 0.15870878
2.79236627 -0.02778342 0.63613021
2.71792579 0.48722026 0.72956502
2.89916801 -0.02792672 0.45316002
2.80804443 0.49902898 0.54713005
3.00842857 -0.02905796 0.26015988
2.91040373 0.51323563 0.35809079
3.01682234 0.53001899 0.15870878
2.79962111 -0.03274754 0.63781601
2.70926332 0.48077181 0.72698021
2.89664578 -0.03295694 0.45276940
2.81141376 0.49406573 0.54760665
3.01584411 -0.03439858 0.26081356
2.90152001 0.50643343 0.35687381
3.01036549 0.52345872 0.15831625
2.79940319 -0.04789439 0.63781601
2.70944571 0.46569321 0.72633404
2.90136290 -0.04871493 0.45355070
2.80186892 0.47725835 0.54522371
3.01561379 -0.05071528 0.26081356
2.90910983 0.49156189 0.35748231
3.02053761 0.50841767 0.15870878
2.80906653 -0.05248039 0.64006382
2.70073366 0.45932770 0.72374922
2.90128279 -0.05327232 0.45355070
2.80269766 0.47236744 0.54522371
3.01054072 -0.05588282 0.26037779
2.90498495 0.48616481 0.35687381
3.01887083 0.50325823 0.15857795
2.80388284 -0.06706796 0.63893998
2.70540619 0.44604912 0.72439539
2.90096426 -0.06846260 0.45355070
2.80505276 0.45817575 0.54522371
3.00523996 -0.07099894 0.25994200
2.90993929 0.47134835 0.35717806
3.01900005 0.48704329 0.15844710
2.80376172 -0.07196155 0.63893998
2.69903159 0.44014826 0.72245675
2.90084004 -0.07352563 0.45355070
2.80592704 0.45278957 0.54522371
3.02004910 -0.07663250 0.26124933
2.90585852 0.46547621 0.35656956
3.01738095 0.48137644 0.15831625
2.80089617 -0.08705286 0.63837802
2.71091366 0.42705825 0.72504157
2.89793158 -0.08914196 0.45316002
2.79856253 0.43656278 0.54331732
3.01959038 -0.09297133 0.26124933
2.91078615 0.45013031 0.35687381
3.02240777 0.46542746 0.15844710
2.80805993 -0.09169596 0.64006382
2.70688391 0.42157477 0.72374922
2.90764356 -0.09452716 0.45472264
2.81144452 0.43356761 0.54570031
3.05427146 -0.09939740 0.26429981
2.91401958 0.44542810 0.35717806
3.02321577 0.46015167 0.15844710
2.80754137 -0.10639761 0.64006382
2.71137023 0.40823230 0.72439539
2.89972544 -0.10895972 0.45355070
2.81360316 0.41933212 0.54570031
2.90887427 0.42957425 0.35626537
3.02303672 0.44447717 0.15831625
2.81223893 -0.11100307 0.64118779
2.70491385 0.40242103 0.72245675
2.91186738 -0.11451385 0.45550397
2.81190348 0.41405937 0.54522371
2.90716481 0.42413461 0.35596111
3.02133775 0.43883771 0.15818542
2.80916381 -0.12610613 0.64062583
2.70698404 0.38825265 0.72245675
2.81160331 0.39898190 0.54474711
2.91180229 0.40925622 0.35626537
3.02606583 0.42336172 0.15831625
2.71243906 0.38421312 0.72374922
2.81236434 0.39358324 0.54474711
2.91251230 0.40417352 0.35626537
3.02185488 0.41738901 0.15805459
2.70969296 0.36887214 0.72245675
2.81438637 0.37885243 0.54474711
2.90727854 0.38741457 0.35535261
3.02406883 0.40103313 0.15805459
2.71511889 0.36479363 0.72374922
2.81017900 0.37328556 0.54379392
2.91526294 0.38383067 0.35626537
3.02964520 0.39693850 0.15831625
