3.34786248 -0.19696802 0.52504057
3.39619088 -0.19984537 0.29458642
3.44843960 -0.20295562 0.05968722
3.49907279 -0.20657665 -0.18186744
3.34508419 -0.20207626 0.52464992
3.40329456 -0.20622867 0.29524007
3.44059539 -0.20851620 0.05955633
3.49621511 -0.21253051 -0.18173660
3.34890842 -0.21991467 0.52543128
3.40220737 -0.22345155 0.29524007
3.44199038 -0.22609310 0.05959997
3.49007225 -0.23050188 -0.18147492
3.34605575 -0.22559176 0.52504057
3.40678167 -0.22972710 0.29567584
3.43905592 -0.23253080 0.05955633
3.49713707 -0.23710357 -0.18186744
3.34232330 -0.24351142 0.52464992
3.39803720 -0.24760893 0.29502219
3.42781973 -0.24980211 0.05938181
3.49584770 -0.25541118 -0.18186744
3.34193659 -0.24876124 0.52464992
3.40008330 -0.25372598 0.29524007
3.42987108 -0.25597185 0.05942544
3.49290681 -0.26132455 -0.18173660
3.34551120 -0.26665130 0.52543128
3.39875555 -0.27093202 0.29524007
3.43351483 -0.27372867 0.05951270
3.48656249 -0.27859992 -0.18147492
3.33765745 -0.27188423 0.52425927
3.41002941 0.35796884 0.65912974
3.39827752 -0.27686355 0.29524007
3.43801427 -0.28012967 0.05959997
3.48358250 -0.28448007 -0.18134408
3.33864808 -0.28957111 0.52464992
3.38255668 0.33714840 0.65341061
3.38933825 -0.29400313 0.29458642
3.43151999 -0.29769227 0.05951270
3.48447967 -0.30354187 -0.18147492
3.34305692 -0.29583591 0.52543128
3.37342882 0.32968560 0.65150422
3.39626193 -0.30058107 0.29524007
3.47019839 0.33503249 0.42319819
3.42845249 -0.30405757 0.05946907
3.47897124 -0.30917826 -0.18121324
3.33403254 -0.31322199 0.52425927
3.37510896 0.31201789 0.65150422
3.38714767 -0.31824902 0.29458642
3.42995524 0.31237021 0.41802612
3.43676782 -0.32294559 0.05964360
3.49814606 0.31622770 0.18225996
3.48724627 -0.32833129 -0.18173660
3.33845210 -0.31893116 0.52504057
3.37320423 0.30590174 0.65102762
3.39650297 -0.32511500 0.29545796
3.42797017 0.30675760 0.41772187
3.42375803 -0.32774550 0.05942544
3.46631384 0.30781913 0.18055904
3.47921276 -0.33369803 -0.18134408
3.33919311 -0.33665594 0.52543128
3.36492968 0.28797412 0.64912122
3.38490295 -0.34129703 0.29458642
3.42952943 0.28880465 0.41772187
3.42702913 -0.34557474 0.05951270
3.46041512 0.28903219 0.18016651
3.48238564 -0.35241598 -0.18160577
3.33860064 -0.34248340 0.52543128
3.36547637 0.28151339 0.64912122
3.38677955 -0.34745985 0.29480430
3.42755532 0.28261131 0.41741762
3.42138672 -0.35163966 0.05942544
3.47086644 0.28381914 0.18068987
3.47431517 -0.35772213 -0.18121324
3.33424377 -0.36027521 0.52504057
3.37424326 0.26447335 0.65055102
3.38237405 -0.36550993 0.29458642
3.42408681 0.26367480 0.41680917
3.41949868 -0.36954910 0.05942544
3.47732925 0.26542246 0.18095157
3.47239470 -0.37590858 -0.18121324
3.33367395 -0.36551219 0.52504057
3.36735940 0.25801128 0.64912122
3.38668203 -0.37195933 0.29502219
3.41707444 0.25772610 0.41589645
3.42630196 -0.37633952 0.05955633
3.47525263 0.25977057 0.18082072
3.46925187 -0.38169414 -0.18108241
3.52195811 0.26147494 -0.06103979
3.32435536 -0.38211200 0.52386862
3.36372709 0.24060740 0.64816803
3.37733340 -0.38823855 0.29436851
3.42580223 0.24036182 0.41680917
3.42187023 -0.39338985 0.05951270
3.47158432 0.24121806 0.18055904
3.47967529 -0.40068334 -0.18173660
3.51575637 0.24311842 -0.06090889
3.32613587 -0.38820118 0.52425927
3.36658978 0.23491041 0.64864463
3.37665081 -0.39413252 0.29436851
3.41631484 0.23369168 0.41559219
3.41869569 -0.39907035 0.05946907
3.47200012 0.23515864 0.18055904
3.47897100 -0.40675592 -0.18173660
3.52365637 0.23749585 -0.06103979
3.31908488 -0.40558967 0.52347797
3.36536264 0.21653113 0.64816803
3.37941313 -0.41300315 0.29480430
3.42000556 0.21536356 0.41589645
3.41896749 -0.41786596 0.05951270
3.47073007 0.21621148 0.18042821
3.46928549 -0.42465886 -0.18134408
3.51241636 0.21763854 -0.06082163
3.39009809 -0.42089832 0.77999008
3.32579494 -0.41171709 0.52464992
3.36573553 0.21065710 0.64816803
3.37621546 -0.41859287 0.29458642
3.40795684 0.20921430 0.41437525
3.42071319 -0.42414150 0.05955633
3.47106552 0.21075939 0.18042821
3.46606183 -0.43040425 -0.18121324
3.51778126 0.21181482 -0.06090889
3.36610675 -0.43581542 0.77493244
3.32849121 -0.42976043 0.52543128
3.36675858 0.19361898 0.64816803
3.37405372 -0.43567601 0.29458642
3.40900564 0.19136748 0.41437525
3.41604376 -0.44112828 0.05951270
3.47212148 0.19258212 0.18042821
3.46383882 -0.44794196 -0.18121324
3.51132107 0.19358458 -0.06077800
3.37507868 -0.44237417 0.77718025
3.32528806 -0.43524721 0.52504057
3.35974097 0.18732262 0.64673823
3.37081885 -0.44123951 0.29436851
3.41428947 0.18569350 0.41498372
3.41526890 -0.44708973 0.05951270
3.46497369 0.18611027 0.18003568
3.46552706 -0.45431265 -0.18134408
3.50915766 0.18731940 -0.06073437
3.32296348 -0.45265231 0.52504057
3.35577393 0.16947424 0.64578503
3.37586498 -0.45989567 0.29502219
3.41521502 0.16781388 0.41498372
3.41535759 -0.46530461 0.05955633
3.47088790 0.16821350 0.18029736
3.46301818 -0.47305626 -0.18134408
3.50509715 0.16869617 -0.06064711
3.32461429 -0.45879030 0.52543128
3.35609293 0.16303131 0.64578503
3.37752390 -0.46612886 0.29524007
3.41798115 0.16197373 0.41528794
3.40950632 -0.47117364 0.05946907
3.45870757 0.16155651 0.17964315
3.46466017 -0.47944322 -0.18147492
3.50538635 0.16257836 -0.06064711
3.35935235 0.14556631 0.64626163
3.36509228 -0.48297521 0.29436851
3.40889120 0.14304891 0.41407099
3.41194057 -0.48973230 0.05955633
3.45953107 0.14284082 0.17964315
3.46210241 -0.49757752 -0.18147492
3.50621438 0.14361012 -0.06064711
3.36205363 0.13980827 0.64673823
3.36424398 -0.48884764 0.29436851
3.40663218 0.13759057 0.41376674
3.41355419 -0.49604738 0.05959997
3.46224570 0.13750879 0.17977400
3.45875812 -0.50325841 -0.18134408
3.50645995 0.13749041 -0.06064711
3.35781288 0.12260380 0.64578503
3.40730619 0.11975168 0.41376674
3.40605664 -0.51257175 0.05951270
3.45792818 0.11920011 0.17951232
3.46101284 -0.52210897 -0.18160577
3.50711083 0.11974093 -0.06064711
3.36049461 0.11624527 0.64626163
3.40751004 0.11380464 0.41376674
3.45695376 -0.52704990 0.06042895
3.46312118 0.11333461 0.17977400
3.46009636 -0.52814877 -0.18160577
3.49981999 0.11336713 -0.06051622
3.34879231 0.09827137 0.64387870
3.40559554 0.09529392 0.41346252
3.45869255 0.09445285 0.17951232
3.45974874 -0.54664946 -0.18173660
3.50537920 0.09457105 -0.06060348
3.35386515 0.09256867 0.64483190
3.40326047 0.08987544 0.41315827
3.45634127 0.08895230 0.17938149
3.49554396 0.08818764 -0.06042895
3.34938383 0.07547477 0.64387870
3.39872265 0.07194313 0.41254979
3.46424747 0.07101720 0.17977400
3.50094366 0.07060137 -0.06051622
3.35688329 0.06920618 0.64530849
3.39388156 0.06590807 0.41194132
3.45188594 0.06472031 0.17911980
3.50605989 0.06458956 -0.06060348
3.34493065 0.05142312 0.64292550
3.39666915 0.04758264 0.41224554
3.45717812 0.04611616 0.17938149
3.51135707 0.04569064 -0.06069074
3.34992290 0.04565870 0.64387870
3.39425874 0.04221290 0.41194132
3.45225358 0.04062022 0.17911980
3.50643229 0.03949928 -0.06060348
3.34274936 0.02862947 0.64244890
3.39195180 0.02441888 0.41163707
3.44492936 0.02248497 0.17872728
3.50408816 0.02173245 -0.06055985
3.34033990 0.02277510 0.64197230
3.39447069 0.01851566 0.41194132
3.43747401 0.01642665 0.17833477
3.50661993 0.01563102 -0.06060348
3.34041333 0.00528489 0.64197230
3.39203954 0.00073819 0.41163707
3.44000912 -0.00156989 0.17846560
3.51165318 -0.00272711 -0.06069074
3.34287167 -0.00054224 0.64244890
3.39203596 -0.00518204 0.41163707
3.44000101 -0.00757383 0.17846560
3.50664353 -0.00884998 -0.06060348
3.34773135 -0.01806509 0.64340210
3.39196229 -0.02294254 0.41163707
3.44990039 -0.02564645 0.17898896
3.50404978 -0.02719438 -0.06055985
3.34033227 -0.02386555 0.64197230
3.39191699 -0.02886260 0.41163707
3.43736815 -0.03156958 0.17833477
3.48650026 -0.03316653 -0.06025443
3.33770776 -0.04132809 0.64149576
3.39420056 -0.04665291 0.41194132
3.43715596 -0.04956708 0.17833477
3.48627877 -0.05142126 -0.06025443
3.33517623 -0.04712216 0.64101911
3.39411378 -0.05257683 0.41194132
3.44455290 -0.05567708 0.17872728
3.48618364 -0.05750588 -0.06025443
3.33487248 -0.06516643 0.64101911
3.39129901 -0.07089140 0.41163707
3.44170499 -0.07426246 0.17859644
3.48332214 -0.07631554 -0.06021080
3.34211469 -0.07113326 0.64244890
3.38622165 -0.07611354 0.41102859
3.43908787 -0.07961411 0.17846560
3.48318362 -0.08239496 -0.06021080
3.33189821 -0.08780326 0.64054251
3.38825727 -0.09390802 0.41133282
3.43862391 -0.09761996 0.17846560
3.48022366 -0.09995534 -0.06016717
3.33663034 -0.09433179 0.64149576
3.38808823 -0.09982150 0.41133282
3.43096209 -0.10340568 0.17807308
3.48254228 -0.10610215 -0.06021080
3.33854342 -0.11187976 0.64197230
3.38253856 -0.11798500 0.41072437
3.44033241 -0.12230892 0.17859644
3.48441529 -0.12502924 -0.06025443
3.32853222 -0.11737414 0.64006591
3.38234901 -0.12329813 0.41072437
3.44013619 -0.12771283 0.17859644
3.47919607 -0.13092905 -0.06016717
3.33525229 -0.13450626 0.64149576
3.38661575 -0.14120632 0.41133282
3.44690371 -0.14603062 0.17898896
3.48348355 -0.14874382 -0.06025443
3.32763147 -0.14060861 0.64006591
3.38140607 -0.14690819 0.41072437
3.44165540 -0.15183294 0.17872728
3.48072124 -0.15471569 -0.06021080
3.32684970 -0.15803005 0.64006591
3.38303995 -0.16531886 0.41102859
3.43579555 -0.17021132 0.17846560
3.47484016 -0.17330340 -0.06012354
3.33392286 -0.16418822 0.64149576
3.37534094 -0.17026778 0.41011587
3.43552423 -0.17560805 0.17846560
3.46953940 -0.17911667 -0.06003627
3.32814765 -0.18080108 0.64054251
3.38183618 -0.18834247 0.41102859
3.41960120 -0.19277082 0.17768057
3.46609235 -0.19653700 -0.05999264
3.32782698 -0.18660952 0.64054251
3.37407017 -0.19382776 0.41011587
3.42424440 -0.19902191 0.17794225
3.46324873 -0.20244358 -0.05994901
3.33170390 -0.20432499 0.64149576
3.38043904 -0.21194737 0.41102859
3.42315531 -0.21694839 0.17794225
3.46962547 -0.22104119 -0.06007991
3.32885575 -0.21056949 0.64101911
3.37758756 -0.21769078 0.41072437
3.42775440 -0.22324048 0.17820393
3.46424532 -0.22677650 -0.05999264
3.33260489 -0.22832510 0.64197230
3.37388468 -0.23579240 0.41042012
3.41902494 -0.24126582 0.17781141
3.46795511 -0.24586344 -0.06007991
3.32240796 -0.23346671 0.64006591
3.37103486 -0.24091825 0.41011587
3.41615152 -0.24645981 0.17768057
3.45754719 -0.25120440 -0.05990538
3.32363153 -0.25046092 0.64054251
3.36477876 -0.25819260 0.40950739
3.41730332 -0.26453263 0.17781141
3.46370864 -0.26927271 -0.06003627
3.32559156 -0.25702706 0.64101911
3.37174487 -0.26463726 0.41042012
3.41932535 -0.27069023 0.17794225
3.46074152 -0.27512282 -0.05999264
3.31686187 -0.27384064 0.63958937
3.36284494 -0.28226361 0.40950739
3.41532278 -0.28897935 0.17781141
3.46667528 -0.29446802 -0.06012354
3.31637883 -0.27962923 0.63958937
3.36481953 -0.28834096 0.40981162
3.41232586 -0.29472825 0.17768057
3.45868397 -0.29988009 -0.05999264
3.32220316 -0.29763663 0.64101911
3.36079240 -0.30573365 0.40950739
3.41570854 -0.31304008 0.17794225
3.47200298 -0.31933960 -0.06025443
3.31679010 -0.30299476 0.64006591
3.36525011 -0.31146303 0.41011587
3.40775418 -0.31771976 0.17754972
3.46895123 -0.32516885 -0.06021080
3.32010031 -0.32024306 0.64101911
3.36604333 -0.32931739 0.41042012
3.40852904 -0.33579975 0.17768057
3.45482206 -0.34150949 -0.05999264
3.31465077 -0.32556427 0.64006591
3.35805488 -0.33446401 0.40950739
3.40048432 -0.34101084 0.17728804
3.45670819 -0.34778574 -0.06003627
3.31772375 -0.34399280 0.64101911
3.35619617 -0.35262784 0.40950739
3.40355563 -0.35992262 0.17754972
3.45974803 -0.36700398 -0.06012354
3.30491352 -0.34851295 0.63863617
3.36057329 -0.35841891 0.41011587
3.40546894 -0.36553162 0.17768057
3.45413089 -0.37251231 -0.06003627
3.30066705 -0.36496976 0.63815957
3.35125160 -0.37519166 0.40920314
3.39854574 -0.38280523 0.17741889
3.44971704 -0.38971305 -0.05999264
3.30734301 -0.37154171 0.63958937
3.35305762 -0.38131717 0.40950739
3.40531468 -0.38957763 0.17781141
3.45896649 -0.39686003 -0.06016717
3.30047679 -0.38828704 0.63863617
3.34608626 -0.39828855 0.40889892
3.39826965 -0.40681547 0.17754972
3.45684123 -0.41496563 -0.06016717
3.30710578 -0.39490965 0.64006591
3.35524154 -0.40530491 0.41011587
3.40003347 -0.41304377 0.17768057
3.44866633 -0.42010128 -0.06003627
3.30499268 -0.41222015 0.64006591
3.35061097 -0.42256010 0.40981162
3.39782405 -0.43084055 0.17768057
3.44889975 -0.43846461 -0.06007991
3.30426812 -0.41798779 0.64006591
3.34740663 -0.42809597 0.40950739
3.39954329 -0.43708524 0.17781141
3.45308828 -0.44511604 -0.06016717
3.30203438 -0.43528306 0.64006591
3.35249949 -0.44658998 0.41042012
3.39968324 -0.45520720 0.17794225
3.44327688 -0.46220228 -0.06003627
3.30119252 -0.44162172 0.64006591
3.35171533 -0.45244050 0.41042012
3.39393497 -0.46047539 0.17768057
3.44246483 -0.46821123 -0.06003627
3.34430242 -0.46988446 0.40981162
3.39139366 -0.47883153 0.17768057
3.43988109 -0.48682985 -0.06003627
3.36321783 -0.47790328 0.41224554
3.39063764 -0.48415810 0.17768057
3.44645095 -0.49388683 -0.06016717
3.39052606 -0.50226724 0.17781141
3.44390702 -0.51132452 -0.06016717
3.43806434 -0.51659805 -0.06007991
3.43768954 -0.53557366 -0.06012354
3.39824486 0.34172687 0.53480697
3.39752936 0.32369626 0.53441632
3.39563084 0.31753746 0.53402567
3.39975882 0.29937595 0.53441632
3.44849610 0.30363381 0.29981574
3.39284444 0.29340124 0.53324437
3.44653940 0.29740185 0.29959786
3.39925671 0.27602932 0.53402567
3.44800043 0.27995363 0.29959786
3.51782322 0.28557757 0.06099616
3.39727139 0.26990193 0.53363502
3.44600129 0.27373949 0.29937997
3.48846173 0.27646992 0.06047259
3.38636875 0.25061283 0.53168172
3.43749642 0.25436127 0.29850841
3.49734020 0.25874984 0.06060348
3.39661002 0.24600114 0.53324437
3.44538760 0.24889556 0.29916209
3.48781347 0.25193056 0.06042895
3.53843522 0.25493842 -0.18409172
3.38553214 0.22739282 0.53129107
3.43914819 0.23095728 0.29850841
3.48405623 0.23394184 0.06034169
3.54217148 0.23719102 -0.18422256
3.38838816 0.22164340 0.53168172
3.43209028 0.22447103 0.29785475
3.48944759 0.22818412 0.06042895
3.54008865 0.23084733 -0.18409172
3.39196706 0.20404577 0.53207237
3.44316268 0.20709021 0.29872632
3.48310900 0.20946434 0.06029806
3.53380942 0.21124743 -0.18369921
3.38245726 0.19755508 0.53050977
3.43357372 0.20050527 0.29785475
3.48849583 0.20306465 0.06038532
3.53417277 0.20507945 -0.18369921
3.38101101 0.17912218 0.53011912
3.43460822 0.18192498 0.29785475
3.48202252 0.18440376 0.06025443
3.53270459 0.18644162 -0.18356836
3.38625097 0.17347080 0.53090042
3.43243337 0.17580418 0.29763687
3.48733211 0.17857915 0.06034169
3.53302455 0.18027560 -0.18356836
3.37721825 0.15587951 0.52933776
3.43825483 0.15865573 0.29807264
3.48569441 0.16081212 0.06029806
3.53142595 0.16166152 -0.18343751
3.37748528 0.14998491 0.52933776
3.42857409 0.15221833 0.29720107
3.49598551 0.15455592 0.06047259
3.53669143 0.15571472 -0.18369921
3.37331223 0.13151927 0.52855647
3.42685938 0.13357022 0.29698321
3.49674702 0.13624895 0.06047259
3.52997375 0.13690838 -0.18330668
3.36857963 0.12603849 0.52777517
3.42210913 0.12740651 0.29654741
3.48448968 0.12968779 0.06025443
3.53020740 0.13074720 -0.18330668
3.37412930 0.10855499 0.52855647
3.42519927 0.11016275 0.29676530
3.49009824 0.11220752 0.06034169
3.52333784 0.11264236 -0.18291415
3.37678218 0.10273956 0.52894717
3.43036532 0.10433313 0.29720107
3.47779632 0.10574303 0.06012354
3.53101563 0.10671500 -0.18330668
3.37974215 0.08511818 0.52933776
3.43086457 0.08637042 0.29720107
3.47080541 0.08734743 0.05999264
3.52155757 0.08736665 -0.18278332
3.38235402 0.07927576 0.52972847
3.42852044 0.08032538 0.29698321
3.47346568 0.08074052 0.06003627
3.52420092 0.08127645 -0.18291415
3.37779593 0.06088819 0.52894717
3.42641449 0.06173074 0.29676530
3.47134185 0.06250884 0.05999264
3.52457833 0.06282275 -0.18291415
3.37541842 0.05554308 0.52855647
3.42651701 0.05575043 0.29676530
3.46894622 0.05641086 0.05994901
3.52468252 0.05667111 -0.18291415
3.36578631 0.03776359 0.52699387
3.42426491 0.03838011 0.29654741
3.46668768 0.03882568 0.05990538
3.52243447 0.03818951 -0.18278332
3.37078524 0.03193309 0.52777517
3.42432666 0.03240358 0.29654741
3.46425629 0.03214824 0.05986175
3.52748847 0.03208435 -0.18304500
3.36843991 0.01368639 0.52738452
3.42196155 0.01386712 0.29632953
3.46187806 0.01400036 0.05981812
3.52511191 0.01360583 -0.18291415
3.36351824 0.00838576 0.52660322
3.41699958 0.00788596 0.29589376
3.45939708 0.00795386 0.05977449
3.51514387 0.00743764 -0.18239079
3.36845493 -0.00924200 0.52738452
3.42695761 -0.00944210 0.29676530
3.45939302 -0.00955575 0.05977449
3.51513648 -0.01035412 -0.18239079
3.35855651 -0.01507105 0.52582192
3.41946459 -0.01538543 0.29611164
3.47186899 -0.01565677 0.05999264
3.51012015 -0.01646303 -0.18212913
3.36090064 -0.03268155 0.52621257
3.41435647 -0.03323812 0.29567584
3.47423911 -0.03386088 0.06003627
3.51497245 -0.03550743 -0.18239079
3.35590029 -0.03848790 0.52543128
3.41429329 -0.03919724 0.29567584
3.47166824 -0.04050034 0.05999264
3.51240873 -0.04161122 -0.18225996
3.35564327 -0.05664442 0.52543128
3.41652131 -0.05771315 0.29589376
3.47640681 -0.05876455 0.06007991
3.51713490 -0.06008951 -0.18252164
3.36295629 -0.06205630 0.52660322
3.42139530 -0.06377164 0.29632953
3.46880174 -0.06468797 0.05994901
3.51702499 -0.06622797 -0.18252164
3.35764837 -0.07954397 0.52582192
3.42102885 -0.08108798 0.29632953
3.46343184 -0.08212299 0.05986175
3.50415087 -0.08433492 -0.18186744
3.35750413 -0.08540405 0.52582192
3.41092324 -0.08679964 0.29545796
3.45827055 -0.08864128 0.05977449
3.51398087 -0.09071383 -0.18239079
3.36192894 -0.10372367 0.52660322
3.41538239 -0.10540960 0.29589376
3.45276213 -0.10659041 0.05968722
3.50846720 -0.10895396 -0.18212913
3.35927486 -0.10950930 0.52621257
3.42017126 -0.11153556 0.29632953
3.45756721 -0.11278220 0.05977449
3.50328135 -0.11491080 -0.18186744
3.36114526 -0.12660502 0.52660322
3.41458583 -0.12865478 0.29589376
3.44696140 -0.12989894 0.05959997
3.49764228 -0.13305974 -0.18160577
3.35598469 -0.13227381 0.52582192
3.40689039 -0.13431560 0.29524007
3.45170045 -0.13671701 0.05968722
3.49740481 -0.13916408 -0.18160577
3.36015320 -0.15065342 0.52660322
3.41108990 -0.15297253 0.29567584
3.44594336 -0.15456134 0.05959997
3.49662828 -0.15747446 -0.18160577
3.35744572 -0.15581547 0.52621257
3.40584207 -0.15869115 0.29524007
3.44317126 -0.16045766 0.05955633
3.49884176 -0.16369501 -0.18173660
3.35165215 -0.17313519 0.52543128
3.40996957 -0.17618738 0.29567584
3.44730759 -0.17814374 0.05964360
3.49796820 -0.18140206 -0.18173660
3.39177251 -0.18174244 0.77549440
3.35134506 -0.17898466 0.52543128
3.40468311 -0.18187012 0.29524007
3.45198345 -0.18442963 0.05973086
3.49515367 -0.18737189 -0.18160577
