3.30120468 0.41768107 0.40372682
3.28677297 0.41352165 0.17179278
3.27104616 0.41036701 -0.05693847
3.30192852 0.41191870 0.40372682
3.28748989 0.40778452 0.17179278
3.27671814 0.40527782 -0.05702573
3.30903625 0.39464214 0.40433532
3.28964806 0.38999161 0.17179278
3.28134465 0.38784009 -0.05706936
3.33921981 0.39296436 0.40798619
3.29521537 0.38541064 0.17205445
3.27953434 0.38181996 -0.05702573
3.31411099 0.37238970 0.40463954
3.30463052 0.36899310 0.17244697
3.30775070 0.36350098 0.17257781
3.29199457 0.36059061 -0.05720026
3.06396604 1.34772432 0.28979284
3.04991531 1.34154677 0.05754931
3.08362818 1.33714521 0.52621257
3.04812598 1.32176805 0.28761396
3.05460358 1.32456589 0.05750567
3.05420923 1.31808186 0.52074337
3.04814124 1.31546068 0.28739604
3.03647923 1.30980074 0.05711300
3.01699376 1.30078471 -0.17035353
3.06584167 1.30346739 0.52152467
3.05292130 1.29797637 0.28717816
3.03869390 1.29193056 0.05702573
3.02376342 1.28497005 -0.17035353
3.07015991 1.29961133 0.52191538
3.05288815 1.29167700 0.28696030
3.04094410 1.28662503 0.05702573
3.03060150 1.28163278 -0.17061521
3.06552505 1.27877152 0.51996207
3.05938649 1.27620852 0.28696030
3.04280210 1.26929498 0.05693847
3.03496552 1.26478803 -0.17048436
3.07459593 1.27625549 0.52113408
3.06160927 1.27086687 0.28696030
3.04523325 1.26345086 0.05693847
3.03255510 1.25757909 -0.17022268
3.07916975 1.25866866 0.52074337
3.06844044 1.25428355 0.28696030
3.05412126 1.24843323 0.05698210
3.04372144 1.24356937 -0.17048436
3.07678604 1.25143433 0.51996207
3.06370234 1.24611509 0.28630662
3.05397964 1.24216044 0.05693847
3.04357386 1.23731625 -0.17035353
3.08995867 1.23859775 0.52113408
3.07921910 1.23429358 0.28717816
3.06022763 1.22668707 0.05693847
3.04305601 1.21858311 -0.16996101
3.08523297 1.23046267 0.51996207
3.07442737 1.22615373 0.28652450
3.05793214 1.21896112 0.05685121
3.04517841 1.21327019 -0.16996101
3.09184527 1.21375179 0.51996207
3.08333516 1.21041036 0.28674239
3.06660008 1.20384538 0.05689484
3.04916477 1.19639850 -0.16983017
3.09374785 1.20889378 0.51996207
3.07848215 1.20231318 0.28608873
3.06403852 1.19667530 0.05680758
3.05357432 1.19198143 -0.16996101
3.10003519 1.19267845 0.51996207
3.09150267 1.18939483 0.28674239
3.07005644 1.18115151 0.05680758
3.05257607 1.17382658 -0.16956849
3.10211182 1.18726611 0.51996207
3.09357381 1.18399739 0.28674239
3.07211304 1.17579150 0.05680758
3.05695224 1.16938758 -0.16969933
3.10828614 1.17100716 0.51996207
3.09506869 1.16602981 0.28630662
3.08290696 1.16144967 0.05689484
3.06557155 1.15370893 -0.16983017
3.10338712 1.16298497 0.51879013
3.09709883 1.16062617 0.28630662
3.08044839 1.15377808 0.05680758
3.06524181 1.14748275 -0.16969933
3.10963392 1.14617705 0.51879013
3.09398389 1.14041245 0.28543505
3.08175540 1.13590682 0.05672032
3.07355142 1.13227916 -0.16983017
3.11143064 1.14129102 0.51879013
3.10064745 1.13672268 0.28587085
3.08608031 1.13138533 0.05676395
3.06848884 1.12434042 -0.16943765
3.11968660 1.12582088 0.51918077
3.09464550 1.11679411 0.28478140
3.08706403 1.11405671 0.05667669
3.07903194 1.10994899 -0.16969933
3.11932230 1.11954153 0.51879013
3.10362339 1.11391103 0.28543505
3.08919740 1.10812795 0.05667669
3.07626343 1.10289109 -0.16943765
3.12067556 1.10100758 0.51800877
3.10960484 1.09710264 0.28543505
3.09731460 1.09276807 0.05672032
3.08199596 1.08676875 -0.16943765
3.12473154 1.09692085 0.51839942
3.10916471 1.09085071 0.28521717
3.09449863 1.08570826 0.05663306
3.07917500 1.07973850 -0.16917597
3.13043213 1.08054495 0.51839942
3.11229134 1.07428849 0.28499928
3.09995437 1.07003176 0.05663306
3.08950758 1.06522608 -0.16943765
3.13231325 1.07507956 0.51839942
3.11651778 1.06966197 0.28521717
3.10673285 1.06569767 0.05672032
3.08900023 1.05902398 -0.16930681
3.13106322 1.05575371 0.51722747
3.11753869 1.05119574 0.28478140
3.10279369 1.04622710 0.05654579
3.08977032 1.04124379 -0.16904514
3.13037634 1.05005026 0.51683682
3.12881565 1.04891396 0.28565294
3.10698557 1.04160345 0.05658942
3.09395051 1.03664136 -0.16917597
3.13817692 1.03441703 0.51722747
3.12935305 1.03150773 0.28521717
3.10509443 1.02352083 0.05645853
3.09441447 1.01940870 -0.16891429
3.13528395 1.02740324 0.51644617
3.13351583 1.02681851 0.28543505
3.11400366 1.02043080 0.05658942
3.09618902 1.01400638 -0.16891429
3.14297104 1.01172805 0.51683682
3.13410711 1.00887394 0.28499928
3.12168360 1.00487649 0.05663306
3.10638428 0.99876511 -0.16917597
3.14238000 1.00548995 0.51644617
3.13823557 1.00416005 0.28521717
3.11646318 0.99660164 0.05650216
3.10336566 0.99182475 -0.16891429
3.15013051 0.98921180 0.51683682
3.14124608 0.98642117 0.28499928
3.12402415 0.98101771 0.05654579
3.10851669 0.97556204 -0.16891429
3.14713669 0.98224360 0.51605552
3.14296269 0.98093712 0.28499928
3.12811780 0.97630703 0.05658942
3.11259818 0.97087711 -0.16904514
3.15915203 0.96846914 0.51722747
3.15265036 0.96647382 0.28543505
3.13301945 0.96046180 0.05658942
3.11047578 0.95237780 -0.16865261
3.16083741 0.96295387 0.51722747
3.15433264 0.96096987 0.28543505
3.13246608 0.95371842 0.05654579
3.10974455 0.94622225 -0.16852178
3.16836786 0.94654357 0.51761818
3.15471244 0.94246638 0.28499928
3.13023019 0.93516153 0.05641490
3.11226368 0.92921388 -0.16839093
3.16748309 0.94086385 0.51722747
3.15635276 0.93695897 0.28499928
3.13425446 0.93040681 0.05645853
3.11388087 0.92378062 -0.16839093
3.16999483 0.92357677 0.51683682
3.15866303 0.92027605 0.28478140
3.14612412 0.91662443 0.05658942
3.12586761 0.90955210 -0.16878346
3.16922975 0.91735744 0.51644617
3.15069366 0.91199744 0.28390983
3.14067340 0.90850312 0.05645853
3.12265301 0.90271127 -0.16852178
3.17652273 0.90086925 0.51683682
3.15558195 0.89493734 0.28390983
3.15019751 0.89340734 0.05654579
3.12973881 0.88702804 -0.16865261
3.17080259 0.89387268 0.51566488
3.16672921 0.89212406 0.28478140
3.15415835 0.88858426 0.05658942
3.13128209 0.88156426 -0.16865261
3.17543936 0.87725818 0.51566488
3.16880322 0.87542272 0.28456348
3.15138626 0.87061572 0.05645853
3.13329720 0.86504132 -0.16852178
3.17696548 0.87171465 0.51566488
3.17753243 0.87186354 0.28521717
3.16254473 0.86775416 0.05663306
3.13721013 0.86023003 -0.16865261
3.17910147 0.85442877 0.51527423
3.17483759 0.85327917 0.28456348
3.15738750 0.84859383 0.05645853
3.13217235 0.84066069 -0.16812925
3.18297386 0.84951425 0.51566488
3.18594813 0.85029984 0.28543505
3.15417981 0.84124506 0.05637127
3.13122201 0.83455122 -0.16799842
3.19469237 0.83414757 0.51683682
3.18086195 0.83053881 0.28456348
3.16095996 0.82534838 0.05641490
3.14038086 0.81940258 -0.16826010
3.19121766 0.82789105 0.51605552
3.18954039 0.82685661 0.28521717
3.16239572 0.81983024 0.05641490
3.13697195 0.81267101 -0.16799842
3.19072104 0.80995828 0.51527423
3.19609857 0.81131369 0.28543505
3.16408157 0.80319995 0.05637127
3.15328598 0.79929477 -0.16865261
3.19452477 0.80499011 0.51566488
3.19026399 0.80391282 0.28478140
3.16561794 0.79712391 0.05637127
3.14499021 0.79135895 -0.16812925
3.20362949 0.78887236 0.51644617
3.19940400 0.78782827 0.28521717
3.17460322 0.78173029 0.05645853
3.15393996 0.77607131 -0.16839093
3.20246577 0.78325391 0.51605552
3.19351506 0.78047353 0.28456348
3.17353392 0.77559638 0.05641490
3.15286398 0.76997447 -0.16826010
3.20892477 0.76704794 0.51644617
3.19500184 0.76372212 0.28434560
3.17985058 0.76010352 0.05645853
3.15914941 0.75458527 -0.16839093
3.21266174 0.76201463 0.51683682
3.19875360 0.75871801 0.28456348
3.18603730 0.75570345 0.05654579
3.05441308 1.35171723 0.17323200
3.16532040 0.75021899 -0.16865261
3.03343654 1.34113955 -0.05728752
3.21420169 0.74462688 0.51644617
3.20268250 0.74195910 0.28456348
3.07168627 1.34272420 0.40676925
3.18507957 0.73788565 0.05645853
3.04772758 1.32969689 0.17244697
3.16920543 0.73363519 -0.16865261
3.02896690 1.32022858 -0.05706936
3.21549630 0.73901594 0.51644617
3.20397258 0.73636824 0.28456348
3.05128479 1.32743073 0.40372682
3.19123554 0.73344249 0.05654579
3.05004382 1.32437563 0.17244697
3.16804767 0.72754544 -0.16852178
3.03355837 1.31593800 -0.05711300
3.21450210 0.72109145 0.51566488
3.21264505 0.72066969 0.28499928
3.05819297 1.31143618 0.40372682
3.19503188 0.71672320 0.05654579
3.05005479 1.30543101 0.17205445
3.17424965 0.71149224 -0.16865261
3.03581285 1.29806447 -0.05702573
3.21334529 0.71494508 0.51527423
3.20174146 0.71236414 0.28390983
3.06503940 1.30805087 0.40433532
3.19871831 0.71168715 0.05658942
3.05462408 1.30108714 0.17218529
3.17304993 0.70541078 -0.16852178
3.03807378 1.29276407 -0.05702573
3.22428489 0.69967705 0.51644617
3.21029544 0.69664359 0.28434560
3.06498814 1.28908885 0.40342256
3.19995785 0.69440037 0.05654579
3.05909419 1.28410602 0.17205445
3.17437935 0.68770552 -0.16839093
3.04019332 1.27489924 -0.05693847
3.22791553 0.69456655 0.51683682
3.21394181 0.69156200 0.28456348
3.06952095 1.28469872 0.40372682
3.19884109 0.68773174 0.05650216
3.06133056 1.27876496 0.17205445
3.17557502 0.68216413 -0.16839093
3.03780317 1.26765954 -0.05685121
3.22920918 0.67658687 0.51644617
3.22007418 0.67467219 0.28478140
3.07413411 1.26712346 0.40342256
3.20484471 0.67148441 0.05654579
3.06128192 1.25932395 0.17166193
3.18643498 0.66705787 -0.16878346
3.04461718 1.25120497 -0.05685121
3.23510385 0.67251587 0.51722747
3.21393061 0.66753596 0.28412771
3.07612038 1.26229310 0.40342256
3.20845962 0.66639674 0.05658942
3.06325626 1.25451374 0.17166193
3.19003916 0.66200137 -0.16891429
3.04448390 1.24493992 -0.05680758
3.23373938 0.65459079 0.51644617
3.22215056 0.65224570 0.28456348
3.08268762 1.24616933 0.40342256
3.21424150 0.65064329 0.05663306
3.06746888 1.23752010 0.17153110
3.19835639 0.64627540 -0.16917597
3.04842877 1.22857690 -0.05676395
3.23729873 0.64943010 0.51683682
3.22328401 0.64662099 0.28456348
3.08025599 1.23892879 0.40281412
3.20568037 0.64251208 0.05645853
3.05804586 1.22749841 0.17087689
3.19213438 0.63922596 -0.16878346
3.05520630 1.22512174 -0.05685121
3.24076486 0.63190526 0.51683682
3.23162484 0.63012236 0.28499928
3.09613776 1.22591174 0.40403107
3.22126889 0.62810320 0.05667669
3.06696343 1.21185577 0.17100772
3.19788885 0.62297928 -0.16891429
3.05714226 1.20673156 -0.05676395
3.23932862 0.62634653 0.51644617
3.23761058 0.62542301 0.28543505
3.09806013 1.22104681 0.40403107
3.21990561 0.62200731 0.05663306
3.06421900 1.20520246 0.17074604
3.19651937 0.61692524 -0.16878346
3.05226779 1.19864321 -0.05663306
3.24256396 0.60937691 0.51644617
3.24073482 0.60902810 0.28543505
3.10672283 1.20570982 0.40433532
3.21809888 0.60478157 0.05654579
3.06816053 1.18823707 0.17061521
3.20696282 0.60211617 -0.16917597
3.06528521 1.18589449 -0.05676395
3.25333381 0.60551828 0.51800877
3.24424148 0.60382521 0.28565294
3.10419512 1.19849181 0.40372682
3.22406483 0.60007590 0.05663306
3.07488656 1.18468177 0.17087689
3.20309949 0.59560806 -0.16891429
3.06501913 1.17964172 -0.05672032
3.25645971 0.58847564 0.51800877
3.24735856 0.58683026 0.28565294
3.11506462 1.18399155 0.40433532
3.22962284 0.58362973 0.05667669
3.07871413 1.16767693 0.17074604
3.21610403 0.58003575 -0.16943765
3.07348967 1.16446602 -0.05676395
3.25748181 0.58279121 0.51800877
3.24837780 0.58116168 0.28565294
3.11248636 1.17679143 0.40372682
3.22581553 0.57655144 0.05658942
3.08541679 1.16407096 0.17100772
3.20727968 0.57267213 -0.16891429
3.07317996 1.15821528 -0.05672032
3.26302052 0.56557834 0.51839942
3.25638318 0.56442565 0.28608873
3.11648345 1.15906596 0.40342256
3.23864245 0.56135511 0.05676395
3.09868789 1.14997578 0.17140025
3.22007489 0.55756915 -0.16943765
3.07471609 1.13982654 -0.05663306
3.25903726 0.55961919 0.51761818
3.25736332 0.55874139 0.28608873
3.11597419 1.15330446 0.40311834
3.23468995 0.55485952 0.05667669
3.09580922 1.14337063 0.17113857
3.22104311 0.55194813 -0.16943765
3.07904506 1.13532662 -0.05667669
3.26192284 0.54254729 0.51761818
3.26260662 0.54265440 0.28630662
3.11031795 1.13271189 0.40159714
3.24238849 0.53929752 0.05676395
3.09940815 1.12628949 0.17100772
3.22635198 0.53548270 -0.16956849
3.07535815 1.11630309 -0.05650216
3.26286483 0.53685331 0.51761818
3.26600623 0.53736216 0.28652450
3.11229014 1.12728155 0.40159714
3.24095154 0.53266770 0.05672032
3.09902239 1.12002647 0.17087689
3.22481799 0.52944779 -0.16943765
3.08200169 1.11263800 -0.05658942
3.27303839 0.52035064 0.51879013
3.26886606 0.51968360 0.28652450
3.12068033 1.11126161 0.40190139
3.23875833 0.51490885 0.05663306
3.10503674 1.10324275 0.17087689
3.23247743 0.51333576 -0.16969933
3.08326745 1.09426773 -0.05650216
3.27629113 0.51559120 0.51918077
3.27960992 0.51551872 0.28739604
3.12242198 1.10635841 0.40190139
3.24459100 0.51002878 0.05672032
3.10676599 1.09836400 0.17087689
3.23336864 0.50769317 -0.16969933
3.08517265 1.08888483 -0.05650216
3.27406263 0.49769017 0.51839942
3.27725244 0.49816701 0.28696030
3.12582970 1.08917451 0.40159714
3.23971629 0.49247736 0.05658942
3.11011720 1.08125889 0.17074604
3.24091983 0.49150229 -0.16996101
3.09300470 1.07407880 -0.05654579
3.27981091 0.49270600 0.51918077
3.28057981 0.49281490 0.28717816
3.12772608 1.08371735 0.40159714
3.25054455 0.48773450 0.05676395
3.10728288 1.07419121 0.17048436
3.23683405 0.48510781 -0.16969933
3.08542848 1.06540215 -0.05637127
3.28976059 0.47600994 0.52035272
3.28319812 0.47505811 0.28717816
3.12649989 1.06437004 0.40068445
3.24810600 0.46999508 0.05667669
3.11304951 1.05736351 0.17048436
3.24674320 0.46922025 -0.17009185
3.09587955 1.05030572 -0.05645853
3.28561521 0.47014505 0.51957142
3.28648806 0.46967804 0.28739604
3.13521576 1.06185544 0.40159714
3.25634527 0.46538192 0.05680758
3.11470652 1.05247235 0.17048436
3.23767042 0.46214756 -0.16956849
3.10007524 1.04570293 -0.05650216
3.28803182 0.45293528 0.51957142
3.28388858 0.45236084 0.28696030
3.13131928 1.04227722 0.40038019
3.26361227 0.44957352 0.05689484
3.11543775 1.03456914 0.17022268
3.24244118 0.44609314 -0.16969933
3.10295677 1.02920854 -0.05645853
3.28392339 0.44653335 0.51879013
3.27973700 0.44596046 0.28652450
3.13548827 1.03759325 0.40068445
3.25943756 0.44320610 0.05680758
3.11960840 1.02991593 0.17035353
3.25063729 0.44143692 -0.17009185
3.09763002 1.02143300 -0.05632764
3.30090857 0.43124351 0.52113408
3.28696656 0.42942411 0.28696030
3.14795446 1.02347326 0.40159714
3.27162838 0.42742315 0.05698210
3.11308956 1.00969994 0.16969933
3.24802637 0.42320064 -0.16983017
3.10768938 1.00674713 -0.05641490
3.29675746 0.42485327 0.52035272
3.28524089 0.42336974 0.28674239
3.14501548 1.01644468 0.40098864
3.26996350 0.42082372 0.05693847
3.12197256 1.00657332 0.17009185
3.25371289 0.41816473 -0.17009185
3.09992909 0.99824369 -0.05624038
3.29900789 0.40700996 0.52035272
3.28748345 0.40558878 0.28674239
3.14810491 0.99866021 0.40068445
3.27460289 0.40400115 0.05698210
3.12261438 0.98815405 0.16983017
3.26081371 0.40173027 -0.17035353
3.10766697 0.98221356 -0.05628401
3.30699730 0.40271863 0.52152467
3.28818607 0.39985043 0.28674239
3.14966965 0.99371397 0.40068445
3.27282166 0.39798501 0.05693847
3.12416291 0.98324794 0.16983017
3.25903130 0.39573902 -0.17022268
3.10699272 0.97603565 -0.05624038
3.31151342 0.38568205 0.52191538
3.29511571 0.38377571 0.28717816
3.15719891 0.97794616 0.40098864
3.27479434 0.38141471 0.05693847
3.12926817 0.96687645 0.16983017
3.26353860 0.37895590 -0.17035353
3.11189318 0.96029741 -0.05624038
3.30972815 0.37962183 0.52152467
3.29825473 0.37830645 0.28739604
3.15415978 0.97096765 0.40038019
3.28048778 0.37569281 0.05702573
3.12856531 0.96067715 0.16969933
3.26419520 0.37325940 -0.17035353
3.11834192 0.95633703 -0.05632764
3.30025339 0.36045572 0.28739604
3.16174173 0.95460844 0.40068445
3.27992463 0.35824114 0.05698210
3.14805460 0.94807553 0.17048436
3.27106905 0.35670149 -0.17061521
3.12347031 0.93945128 -0.05632764
3.16086149 0.94892401 0.40038019
3.32031226 0.35676602 0.05768020
3.14236808 0.94097090 0.17009185
3.26920390 0.35072699 -0.17048436
3.11792350 0.93184102 -0.05619675
3.17292452 0.93447381 0.40129289
3.14964581 0.92521167 0.17022268
3.12979245 0.91816884 -0.05632764
3.16502833 0.92613387 0.40007594
3.14646482 0.91830754 0.16996101
3.12899184 0.91200221 -0.05628401
3.16744995 0.90886152 0.39977169
3.15602827 0.90320069 0.17022268
3.13132167 0.89491612 -0.05624038
3.17618775 0.90538251 0.40068445
3.15039873 0.89563280 0.16983017
3.12807178 0.88807756 -0.05615311
3.17132902 0.88605547 0.39946747
3.15744925 0.87979865 0.16996101
3.13990021 0.87370712 -0.05628401
3.17765093 0.88185287 0.40007594
3.16378999 0.87562501 0.17022268
3.13901186 0.86755645 -0.05624038
3.17743778 0.86389405 0.39946747
3.16351414 0.85773426 0.16996101
3.14109969 0.85045218 -0.05619675
3.15142632 0.85325122 -0.28203869
3.17654586 0.85769689 0.39916322
3.16500640 0.85221153 0.16996101
3.14257908 0.84496862 -0.05619675
3.19313073 0.84368366 0.40068445
3.16474414 0.83379591 0.16969933
3.14710474 0.82795340 -0.05619675
3.18965387 0.83740002 0.40007594
3.16846442 0.82945943 0.16983017
3.15096259 0.82309455 -0.05624038
3.20360446 0.82317114 0.40129289
3.17518187 0.81348109 0.16996101
3.16235065 0.80900431 -0.05637127
3.20503616 0.81757855 0.40129289
3.17901540 0.80855685 0.17009185
3.15891409 0.80224633 -0.05628401
3.20219231 0.79841471 0.40038019
3.17849922 0.79013366 0.16983017
3.16320825 0.78514332 -0.05628401
3.20825791 0.79458350 0.40098864
3.18458271 0.78634363 0.17009185
3.17185235 0.78142524 -0.05641490
3.20273089 0.77542520 0.39977169
3.18137789 0.76789093 0.16969933
3.17090869 0.76418304 -0.05632764
3.20649147 0.77041733 0.40007594
3.18756747 0.76350719 0.16996101
3.16737700 0.75747806 -0.05624038
3.21785760 0.75476730 0.40098864
3.18922162 0.74567783 0.16983017
3.16899562 0.73975825 -0.05619675
3.21433830 0.74801838 0.40038019
3.19294930 0.74067807 0.16996101
3.17271638 0.73479360 -0.05624038
3.21579194 0.73062485 0.40007594
3.19678378 0.72394973 0.16996101
3.17408299 0.71761662 -0.05619675
3.21209598 0.72447395 0.39946747
3.20278716 0.72002923 0.17022268
3.18020678 0.71317643 -0.05628401
3.22553611 0.70979220 0.40068445
3.20895100 0.70378798 0.17035353
3.19109893 0.69868505 -0.05641490
3.22676969 0.70416147 0.40068445
3.20285821 0.69658428 0.16996101
3.18254590 0.69097942 -0.05624038
3.23053241 0.68669277 0.40068445
3.21146321 0.68028653 0.17022268
3.19112730 0.67479122 -0.05632764
3.23403406 0.68213284 0.40098864
3.21497011 0.67575806 0.17035353
3.19230008 0.66922063 -0.05632764
3.23027158 0.66368186 0.40007594
3.22335505 0.65992367 0.17061521
3.19809508 0.65355837 -0.05637127
3.23628688 0.65904015 0.40068445
3.21960950 0.65329707 0.17035353
3.19678140 0.64747596 -0.05632764
3.23007131 0.63957912 0.39946747
3.22064877 0.63538128 0.17022268
3.21004534 0.63211578 -0.05650216
3.24324298 0.63691223 0.40098864
3.22654176 0.63128710 0.17048436
3.20869112 0.62603021 -0.05645853
3.24653339 0.61992198 0.40098864
3.22489905 0.61344445 0.17022268
3.21672845 0.61072093 -0.05654579
3.25248575 0.61518389 0.40159714
3.23332310 0.60921204 0.17061521
3.21042180 0.60370958 -0.05641490
3.25322199 0.59769374 0.40129289
3.22664785 0.59046286 0.17009185
3.21108079 0.58643919 -0.05637127
3.26158237 0.59335744 0.40220562
3.23012948 0.58527893 0.17022268
3.21209931 0.58083391 -0.05637127
3.26474524 0.57570201 0.40220562
3.23570681 0.56822896 0.17035353
3.22504067 0.56518596 -0.05654579
3.26808929 0.57100350 0.40250987
3.23659539 0.56314564 0.17035353
3.22356009 0.55912572 -0.05650216
3.26125002 0.55221343 0.40129289
3.25180626 0.54828370 0.17100772
3.22388411 0.54238462 -0.05645853
3.26465583 0.54693401 0.40159714
3.24783397 0.54177892 0.17074604
3.23222136 0.53799856 -0.05658942
3.27246475 0.53006297 0.40220562
3.24825406 0.52379781 0.17061521
3.22768307 0.51930130 -0.05645853
3.27819252 0.52571452 0.40281412
3.25893188 0.52028286 0.17113857
3.23105240 0.51406330 -0.05650216
3.27109408 0.50700885 0.40159714
3.25667763 0.50244385 0.17087689
3.23361301 0.49770299 -0.05650216
3.27687836 0.50205737 0.40220562
3.25754952 0.49675915 0.17087689
3.23941779 0.49281725 -0.05658942
3.27700806 0.48452652 0.40190139
3.26257563 0.48006281 0.17100772
3.24195385 0.47584906 -0.05658942
3.28275847 0.47953048 0.40250987
3.27081847 0.47545540 0.17140025
3.25019932 0.47127643 -0.05672032
3.28530478 0.46176210 0.40250987
3.26592708 0.45670417 0.17100772
3.25022650 0.45333564 -0.05667669
3.29094076 0.45729083 0.40311834
3.27405787 0.45260942 0.17140025
3.25844002 0.44869551 -0.05680758
3.29328990 0.44005331 0.40311834
3.27143431 0.43479568 0.17113857
3.26810145 0.43319300 -0.05693847
3.28913355 0.43364924 0.40250987
3.27961302 0.43006936 0.17153110
3.26141882 0.42650580 -0.05680758
