2.86314535 0.36113429 0.34957206
2.86617112 0.35694700 0.34987631
2.87539148 0.34282804 0.35078901
2.87844944 0.33810237 0.35109326
2.88516784 0.32308370 0.35170174
2.89306974 0.31937978 0.35261446
2.89963698 0.30475387 0.35322294
2.91250372 0.30098733 0.35474414
2.92149758 0.28596166 0.35565686
2.30951953 1.27658582 -0.13646600
2.30740356 1.25969708 -0.13594264
2.31618166 1.25924063 -0.13633516
2.31834221 1.24473727 -0.13607349
2.32051110 1.24068904 -0.13607349
2.33338618 1.23242104 -0.13646600
2.33553338 1.22834659 -0.13646600
2.34414959 1.21724987 -0.13659684
2.33961511 1.20972168 -0.13620432
2.35259056 1.20085514 -0.13659684
2.35468292 1.19674730 -0.13659684
2.35908294 1.18399894 0.04546352
2.36558867 1.18622482 -0.13685852
2.34569263 1.17166018 0.04515810
2.36318636 1.17986715 -0.13659684
2.36076641 1.16377664 0.04533262
2.37157202 1.16857922 -0.13672768
2.36054945 1.15855491 0.04528899
2.37360811 1.16443825 -0.13672768
2.36188269 1.14441574 0.04520173
2.37967229 1.15199435 -0.13672768
2.37083244 1.14313102 0.04533262
2.38617873 1.15000355 -0.13698936
2.38130140 1.13284612 0.04541989
2.39442301 1.13856435 -0.13712020
2.38553476 1.12975645 0.04546352
2.39414907 1.13331711 -0.13698936
2.39122248 1.11766791 0.04546352
2.40005040 1.12076581 -0.13698936
2.39563084 1.11412740 0.04550714
2.39973807 1.11552453 -0.13685852
2.40143156 1.10156858 0.04550714
2.41235638 1.10606098 -0.13725103
2.40601158 1.09859490 0.22834805
2.39880157 1.09530258 0.04541989
2.41428328 1.10184896 -0.13725103
2.39791250 1.08027530 0.22704072
2.41115403 1.08622229 0.04555078
2.41755223 1.08859169 -0.13712020
2.39524794 1.07405376 0.22660492
2.40620160 1.07894921 0.04541989
2.42172718 1.08538997 -0.13725103
2.40767407 1.06451380 0.22725859
2.41867852 1.06936288 0.04555078
2.43441772 1.07529259 -0.13764356
2.40952849 1.06031013 0.22725859
2.42530465 1.06672680 0.04563804
2.44086313 1.07304835 -0.13790524
2.42208719 1.05022502 0.22791228
2.42626858 1.05202806 0.04555078
2.44873977 1.06124449 -0.13803609
2.42162895 1.04501104 0.22769438
2.43269253 1.04976916 0.04563804
2.45288110 1.05795610 -0.13816692
2.42917943 1.03371429 0.22791228
2.43567395 1.03646576 0.04559441
2.45608878 1.04412341 -0.13803609
2.43098021 1.02947295 0.22791228
2.44226456 1.03373289 0.04568167
2.45790744 1.03983510 -0.13803609
2.44571161 1.02013350 0.22878383
2.45225906 1.02285242 0.04576893
2.46562314 1.02791035 -0.13816692
2.54991531 1.06142068 -0.33436003
2.44058514 1.01300395 0.22813015
2.46327782 1.02239704 0.04594346
2.46972013 1.02456033 -0.13829775
2.47820258 1.02706528 -0.32462436
2.45259857 1.00346255 0.22878383
2.46147871 1.00708175 0.04581257
2.47949743 1.01393366 -0.13855945
2.49043989 1.01688457 -0.32553709
2.45665359 1.00011778 0.22900173
2.47712755 1.00842893 0.04607435
2.48126340 1.00960457 -0.13855945
2.48531222 1.00973928 -0.32462436
2.47343826 0.99138147 0.41604778
2.46202874 0.98681146 0.22900173
2.47558451 0.99222690 0.04594346
2.49364376 0.99894506 -0.13895196
2.49765277 0.99903744 -0.32553709
2.44075036 0.97336781 0.41018796
2.46143317 0.98159200 0.22878383
2.47963524 0.98882890 0.04598709
2.49538350 0.99459130 -0.13895196
2.50169873 0.99559259 -0.32584134
2.45271063 0.96327776 0.41135994
2.46885800 0.96959937 0.22900173
2.48477888 0.97583210 0.04598709
2.49823260 0.98060137 -0.13882111
2.51149917 0.98428768 -0.32644978
2.45882154 0.96121866 0.41214126
2.47982788 0.96890759 0.22987328
2.48647809 0.97149384 0.04598709
2.50691867 0.97895908 -0.13921364
2.51766729 0.98214185 -0.32705829
2.46843123 0.95010179 0.41292256
2.48702478 0.95723653 0.23009115
2.49603033 0.96068859 0.04607435
2.51434112 0.96671379 -0.13934447
2.52509236 0.96983403 -0.32736254
2.47008538 0.94579214 0.41292256
2.49334478 0.95467216 0.23052694
2.49553490 0.95500314 0.04603072
2.50902700 0.95965338 -0.13895196
2.52214384 0.96365726 -0.32675403
2.47747803 0.93328273 0.41331321
2.49614239 0.94029170 0.23030905
2.51219988 0.94632083 0.04624887
2.51401711 0.94650304 -0.13895196
2.53196764 0.95174015 -0.32736254
2.47662830 0.92852473 0.41292256
2.50244546 0.93767816 0.23074484
2.50916553 0.94018412 0.04616161
2.52735877 0.94648343 -0.13960616
2.53578401 0.94862950 -0.32766676
2.48609042 0.91725063 0.41370389
2.51884484 0.92930186 0.23183426
2.51623774 0.92833561 0.04620524
2.53227973 0.93323737 -0.13960616
2.54071617 0.93533927 -0.32766676
2.48007965 0.90916204 0.60128915
2.49232507 0.91460806 0.41448516
2.51812458 0.92404801 0.23161639
2.51801515 0.92350304 0.04620524
2.53624916 0.92967367 -0.13973700
2.54933715 0.93345809 -0.32857949
2.48037767 0.89408159 0.60016519
2.49026704 0.89860082 0.41331321
2.52074385 0.90956664 0.23139849
2.53222346 0.91369307 0.04637977
2.54108214 0.91638118 -0.13973700
2.55201507 0.91881227 -0.32827523
2.48865986 0.89264667 0.60185111
2.49400020 0.89552075 0.41370389
2.51529360 0.90264714 0.23074484
2.53146100 0.90842944 0.04633614
2.54502845 0.91278601 -0.13986784
2.55812836 0.91647297 -0.32888371
2.49789524 0.88122135 0.60297501
2.51262856 0.88737363 0.41604778
2.53392339 0.89487040 0.23205216
2.54309893 0.89809698 0.04646703
2.55667996 0.90238065 -0.14026035
2.56055117 0.90224320 -0.32857949
2.50387478 0.87890697 0.60409892
2.51650381 0.88380337 0.41643846
2.53078079 0.88879949 0.23161639
2.53758574 0.89117742 0.04633614
2.55589485 0.89709187 -0.14012952
2.57383370 0.90186733 -0.33010069
2.50168300 0.86296880 0.60241300
2.52810097 0.87302798 0.41761041
2.54246354 0.87796986 0.23227006
2.54694366 0.87950689 0.04642340
2.56307173 0.88406247 -0.14026035
2.57852054 0.88837838 -0.33010069
2.51240492 0.86175591 0.60466087
2.52261257 0.86621344 0.41643846
2.54634833 0.87433821 0.23248795
2.55808687 0.87785417 0.04659792
2.57642174 0.88362902 -0.14091456
2.58241510 0.88467932 -0.33040491
2.52164865 0.84970230 0.60578477
2.53194284 0.85412741 0.41721973
2.55340171 0.86134267 0.23270582
2.56738615 0.86604255 0.04668519
2.58574557 0.87171876 -0.14117624
2.59186864 0.87227386 -0.33101341
2.51835966 0.84419519 0.60466087
2.54030609 0.85250103 0.41839173
2.55490136 0.85688490 0.23270582
2.56889391 0.86156040 0.04668519
2.58489513 0.86641264 -0.14104539
2.59088206 0.86741537 -0.33070916
2.53200245 0.83403933 0.60690868
2.54473495 0.83918840 0.41839173
2.56157160 0.84472084 0.23292372
2.57322168 0.84854704 0.04668519
2.59888387 0.85598373 -0.14156875
2.60481906 0.85693294 -0.33192614
2.52882290 0.82810605 0.60578477
2.55558372 0.83781600 0.41995436
2.56777620 0.84179705 0.23335950
2.57959771 0.84515834 0.04677244
2.60749316 0.85377216 -0.14196128
2.60631084 0.85238540 -0.33192614
2.54486489 0.81813109 0.60859454
2.55537701 0.82246703 0.41917303
2.56755066 0.82636905 0.23292372
2.58398771 0.83164006 0.04677244
2.62143636 0.84315878 -0.14248464
2.62270021 0.84205598 -0.33344734
2.54382586 0.81339234 0.60803258
2.56137037 0.81995440 0.41995436
2.56898880 0.82188666 0.23292372
2.58781672 0.82788903 0.04681608
2.62528253 0.83934087 -0.14261547
2.62874818 0.83944160 -0.33405581
2.54572558 0.79933375 0.60747057
2.55855989 0.80431533 0.41878235
2.57786894 0.81036371 0.23335950
2.59197402 0.81478029 0.04681608
2.62473297 0.82454938 -0.14235380
2.64021254 0.82788849 -0.33496854
2.54930329 0.79605836 0.60803258
2.55995965 0.79984850 0.41878235
2.58878970 0.80882728 0.23423107
2.60055137 0.81248641 0.04694697
2.63331866 0.82219428 -0.14274631
2.34504223 1.23804080 -0.04568167
2.63928366 0.82254249 -0.33466429
2.55603981 0.78251952 0.60859454
2.57369566 0.78887409 0.42034501
2.59550977 0.79553694 0.23444895
2.60729933 0.79913497 0.04699060
2.63295317 0.80647564 -0.14248464
2.32734418 1.21258759 -0.04520173
2.64606905 0.80897450 -0.33496854
2.55959654 0.77921122 0.60915649
2.57256913 0.78411210 0.41995436
2.59451151 0.79028177 0.23423107
2.62064862 0.79821646 0.04720876
2.63913465 0.80332977 -0.14274631
2.33167362 1.20967877 -0.04524536
2.64496183 0.80409694 -0.33466429
2.56130672 0.76510304 0.60859454
2.57427311 0.76992559 0.41956368
2.60563779 0.77927542 0.23488472
2.61507392 0.78208393 0.04703423
2.63359690 0.78710872 -0.14222296
2.33776665 1.19786167 -0.04524536
2.65151405 0.79094470 -0.33496854
2.57418394 0.76453823 0.61140430
2.58508253 0.76823843 0.42112631
2.60460591 0.77401876 0.23466682
2.62841797 0.78107035 0.04725239
2.64693546 0.78605634 -0.14287716
2.33540440 1.19149995 -0.04515810
2.65051103 0.78561217 -0.33466429
2.57828307 0.75059938 0.61140430
2.58432770 0.75331390 0.42034501
2.60862303 0.76037055 0.23466682
2.63007092 0.76659948 0.04720876
2.64395666 0.76963526 -0.14248464
2.34607220 1.18151200 -0.04524536
2.66173768 0.77379650 -0.33557701
2.58192945 0.74677342 0.61196619
2.59275556 0.75085771 0.42151698
2.61233878 0.75650752 0.23488472
2.64354587 0.76501465 0.04742691
2.65489125 0.76778722 -0.14300799
2.35036325 1.17853975 -0.04528899
2.66546869 0.76983660 -0.33588126
2.58358788 0.73213053 0.61140430
2.60390806 0.73883563 0.42268893
2.61639380 0.74236244 0.23488472
2.64751506 0.75116259 0.04742691
2.65647268 0.75319648 -0.14287716
2.35446668 1.16469371 -0.04524536
2.66243052 0.75338191 -0.33496854
2.58708000 0.72873008 0.61196619
2.60981941 0.73608184 0.42347026
2.62487817 0.73981661 0.23553839
2.65844774 0.74924630 0.04760144
2.66980076 0.75193459 -0.14353135
2.35873652 1.16169095 -0.04528899
2.67555666 0.75255001 -0.33648971
2.59790635 0.71711373 0.61365211
2.62554026 0.72568750 0.42542350
2.62858915 0.72652155 0.23553839
2.66220593 0.73578113 0.04760144
2.67851567 0.73927045 -0.14379303
2.36458611 1.14973736 -0.04528899
2.68185306 0.73918831 -0.33679396
2.38296223 1.15869856 -0.22832741
2.59915400 0.71257842 0.61365211
2.62203956 0.71979994 0.42464221
2.63465738 0.72324789 0.23597418
2.65879154 0.72934949 0.04751417
2.69184303 0.73788625 -0.14444724
2.37333322 1.14888775 -0.04541989
2.69032049 0.73646700 -0.33770669
2.38498092 1.15453780 -0.22832741
2.61003113 0.70039433 0.61533797
2.62828088 0.70624202 0.42503288
2.64815450 0.71156079 0.23684573
2.66740298 0.71671212 0.04760144
2.38301373 1.13872373 0.13659684
2.68361139 0.72055310 -0.14379303
2.37500668 1.13386834 -0.04533262
2.69666314 0.72254086 -0.33801094
2.38874793 1.14095700 -0.22810996
2.61112785 0.69629359 0.61533797
2.63177299 0.70274800 0.42542350
2.65420580 0.70821863 0.23728150
2.66623402 0.71141273 0.04755780
2.36677980 1.12636507 0.13555013
2.69451571 0.71843427 -0.14431639
2.38149357 1.13187528 -0.04541989
2.69539618 0.71766722 -0.33770669
2.38848805 1.13571274 -0.22789249
2.62416768 0.68506682 0.61758578
2.63302708 0.68833560 0.42503288
2.66980624 0.69791639 0.23837095
2.68431354 0.70169169 0.04781959
2.37716103 1.11608720 0.13581181
2.69328570 0.70352834 -0.14405473
2.39171410 1.12193787 -0.04550714
2.70632195 0.70541710 -0.33861941
2.40096426 1.12679493 -0.22854488
2.64139628 0.68559515 0.42620483
2.67584229 0.69450372 0.23880674
2.69279385 0.69888449 0.04795048
2.38136530 1.11299753 0.13594264
2.69692659 0.69945168 -0.14418554
2.39140582 1.11670041 -0.04546352
2.71235442 0.70193267 -0.33922789
2.40518188 1.12366080 -0.22876231
2.64734340 0.67236167 0.42659551
2.68185616 0.68109483 0.23902461
2.68914676 0.68293470 0.04781959
2.38489485 1.09946430 0.13581181
2.70297217 0.68593353 -0.14431639
2.40402555 1.10731268 -0.04559441
2.72080445 0.68893617 -0.33983639
2.41103220 1.11105192 -0.22876231
2.64611816 0.66713816 0.42620483
2.68787193 0.67762738 0.23946041
2.70487976 0.68189633 0.04808138
2.39361191 1.09843588 0.13620432
2.71385050 0.68364775 -0.14483975
2.40141368 1.10102367 -0.04550714
2.71959543 0.68358320 -0.33953214
2.41522956 1.10788441 -0.22897977
2.65197277 0.65386343 0.42659551
2.69138312 0.66354454 0.23946041
2.71084046 0.66832107 0.04812501
2.39478493 1.08382130 0.13594264
2.71739316 0.66942871 -0.14483975
2.40942144 1.08946884 -0.04555078
2.72313762 0.66933411 -0.33953214
2.41646266 1.09316242 -0.22854488
2.66750360 0.65274525 0.42893940
2.69495654 0.65943640 0.23967829
2.72414517 0.66655093 0.04834316
2.40122199 1.08169878 0.13620432
2.71855712 0.66468495 -0.14483975
2.41359711 1.08629179 -0.04559441
2.73394608 0.66692603 -0.34074908
2.41836691 1.08894324 -0.22854488
2.66608095 0.63762414 0.42815810
2.69352674 0.64416146 0.23924251
2.41209650 1.07344973 0.31945229
2.72759771 0.65227824 0.04834316
2.40685296 1.06911111 0.13620432
2.72939968 0.65170097 -0.14523228
2.42153478 1.07465732 -0.04563804
2.73740053 0.65260208 -0.34074908
2.43559670 1.08091354 -0.22963212
2.67680168 0.63524389 0.42972073
2.70191813 0.64117956 0.23989619
2.40489793 1.06520271 0.31823531
2.74100780 0.64991570 0.04856132
2.41555977 1.06794918 0.13659684
2.73296285 0.64751017 -0.14536311
2.42112184 1.06941533 -0.04559441
2.74095058 0.64839298 -0.34105334
2.43520284 1.07565093 -0.22941469
2.68741727 0.62241811 0.43089268
2.70534778 0.62655145 0.23989619
2.39699078 1.04619563 0.31640986
2.73706627 0.63386798 0.04843042
2.42358994 1.05586529 0.13672768
2.73631549 0.63319159 -0.14536311
2.43374300 1.05930471 -0.04572530
2.74683690 0.63411009 -0.34135756
2.44764662 1.06588030 -0.23006704
2.68839169 0.61819601 0.43089268
2.71371984 0.62349677 0.24054985
2.39408350 1.04044318 0.31580141
2.74791455 0.63132209 0.04860495
2.42295671 1.05105948 0.13659684
2.74715137 0.63064265 -0.14588647
2.43558812 1.05505550 -0.04572530
2.75024867 0.63034731 -0.34166181
2.44721985 1.06061232 -0.22984959
2.69400120 0.60465032 0.43128335
2.72170138 0.61084086 0.24098562
2.40861487 1.03181803 0.31701836
2.74375677 0.61576855 0.04847405
2.43301439 1.04032958 0.13685852
2.75761724 0.61836386 -0.14627899
2.44778800 1.04567218 -0.04585620
2.76319909 0.61809862 -0.34287876
2.45484519 1.04919505 -0.23006704
2.69987392 0.60101718 0.43206465
2.73492050 0.60878700 0.24207507
2.41725516 1.03054404 0.31793109
2.74970818 0.61206174 0.04856132
2.43712187 1.03706300 0.13698936
2.75381756 0.61246926 -0.14601731
2.45190787 1.04238021 -0.04589982
2.45667267 1.04490900 -0.23006704
2.70791316 0.58744437 0.43284598
2.73817444 0.59398079 0.24207507
2.42965388 1.02034473 0.31884378
2.74809313 0.59611911 0.04847405
2.44499826 1.02483094 0.13712020
2.76441169 0.59914225 -0.14640982
2.45520806 1.02812958 -0.04585620
2.46688104 1.03353453 -0.23050195
2.71366143 0.58422613 0.43362728
2.74407721 0.59024501 0.24251086
2.42439079 1.01364338 0.31793109
2.74912930 0.59132189 0.04847405
2.44660497 1.02098918 0.13712020
2.77033591 0.59536242 -0.14667152
2.46391582 1.02673912 -0.04598709
2.46868110 1.02922738 -0.23050195
2.71668315 0.57000953 0.43362728
2.76653171 0.58042628 0.24425398
2.43654299 1.00378311 0.31884378
2.75698066 0.57842296 0.04856132
2.44960976 1.00721133 0.13698936
2.78308892 0.58337504 -0.14719488
2.47370195 1.01616251 -0.04607435
2.46925473 1.01481783 -0.23006704
2.72492766 0.56677061 0.43479925
2.76510191 0.57509142 0.24403608
2.44287968 1.00141943 0.31945229
2.76777601 0.57563949 0.04873584
2.45829129 1.00578260 0.13738188
2.78165817 0.57801044 -0.14706403
2.48009634 1.01374292 -0.04616161
2.48254037 1.01523983 -0.23115432
2.72785759 0.55249524 0.43479925
2.77539873 0.56208360 0.24468975
2.44349098 0.98674852 0.31884378
2.76830173 0.56064510 0.04869221
2.46120977 0.99195993 0.13725103
2.78719234 0.56344485 -0.14719488
2.48305273 0.99980563 -0.04611798
2.48568821 1.00085902 -0.23093687
2.72881794 0.54773337 0.43479925
2.77393341 0.55675030 0.24447185
2.44981146 0.98434061 0.31945229
2.77917790 0.55728853 0.04886673
2.46988416 0.99046242 0.13764356
2.79061937 0.55906820 -0.14732571
2.48479390 0.99547040 -0.04611798
2.49436235 0.99930966 -0.23158923
2.74143720 0.53484577 0.43636188
2.78179455 0.54268420 0.24490763
2.46201897 0.97382158 0.32036498
2.77960372 0.54225218 0.04882310
2.47288632 0.97616404 0.13751273
2.80086136 0.54587686 -0.14771824
2.49711466 0.98477477 -0.04624887
2.49956036 0.98623556 -0.23158923
2.74712300 0.53147358 0.43714318
2.78518319 0.53829920 0.24512553
2.45662403 0.96721387 0.31945229
2.78545523 0.53834534 0.04891037
2.47906089 0.97411245 0.13777439
2.79690623 0.54004419 -0.14745654
2.50115514 0.98133200 -0.04629251
2.50359464 0.98278540 -0.23180668
2.75229526 0.51753706 0.43753383
2.79031968 0.52465379 0.24534340
2.47321463 0.95884269 0.32097349
2.80288553 0.52700150 0.04917215
2.48180008 0.96021402 0.13764356
2.81441975 0.52814525 -0.14824159
2.51774001 0.97318572 -0.04651066
2.51102757 0.97056508 -0.23202413
2.76290584 0.51453429 0.43909645
2.78388524 0.51842010 0.24468975
2.47488451 0.95452470 0.32097349
2.79897690 0.52070838 0.04908489
2.49045777 0.95858330 0.13803609
2.51710296 0.96788883 -0.04646703
2.52665615 0.97156787 -0.23332886
2.76564932 0.49957809 0.43909645
2.78664923 0.50335038 0.24468975
2.48001266 0.94112033 0.32097349
2.80904508 0.50737381 0.04921578
2.49794078 0.94598287 0.13816692
2.52931237 0.95692128 -0.04659792
2.53403664 0.95921063 -0.23354632
2.77858543 0.49740049 0.44104972
2.46493435 0.93434483 0.50518978
2.79733109 0.50023299 0.24556130
2.47684813 0.93546206 0.32036498
2.81238723 0.50290871 0.04925942
2.50175834 0.94294244 0.13829775
2.53097868 0.95250529 -0.04659792
2.53803587 0.95566803 -0.23376377
2.78358507 0.48326582 0.44144040
2.47422743 0.92358124 0.50614297
2.79491925 0.48521942 0.24512553
2.48868537 0.92508626 0.32127771
2.81243372 0.48824167 0.04921578
2.50900054 0.93070269 0.13842860
2.52405548 0.93532026 -0.04637977
2.54767275 0.94410461 -0.23419867
2.77955627 0.47757384 0.44065908
2.47139740 0.91711372 0.50518978
2.80312610 0.48160076 0.24577919
2.49262214 0.92160589 0.32158196
2.82322121 0.48452589 0.04939031
2.52232480 0.93066323 0.13908280
2.53505945 0.93438715 -0.04655429
2.53997517 0.93619549 -0.23332886
2.79428029 0.46454459 0.44261235
2.48307681 0.90669847 0.50661957
2.81060505 0.46724099 0.24621499
2.49990273 0.90895802 0.32188621
2.83065176 0.47055349 0.04947757
2.52966857 0.91785812 0.13921364
2.54242659 0.92151326 -0.04659792
2.55654144 0.92714864 -0.23441613
2.79744339 0.46055424 0.44300303
2.48926592 0.90404677 0.50757277
2.82616282 0.46474963 0.24752231
2.51065516 0.90842324 0.32310316
2.83146858 0.46561235 0.04947757
2.52876067 0.91303152 0.13908280
2.55578136 0.92133272 -0.04681608
2.55347347 0.92098737 -0.23398124
2.86078691 0.45556831 0.45276940
2.48919106 0.88977581 0.50661957
2.83339834 0.45121932 0.24795809
2.51537728 0.89526510 0.32310316
2.84366417 0.45284095 0.04965210
2.53820872 0.90145761 0.13934447
2.55570316 0.90670556 -0.04672882
2.55810189 0.90805137 -0.23398124
2.82498503 0.44483781 0.44690955
2.49767280 0.88790822 0.50804937
2.84894419 0.44858781 0.24926542
2.51226020 0.88920957 0.32249466
2.83951116 0.44710281 0.04956483
2.54918885 0.90036786 0.13986784
2.56434917 0.90475047 -0.04685971
2.55968308 0.90358531 -0.23398124
2.49997258 0.87400430 0.50757277
2.84140420 0.43217334 0.24839386
2.52390814 0.87850255 0.32340741
2.84922743 0.43335173 0.04969572
2.54679728 0.88453877 0.13947532
2.57141137 0.89213449 -0.04690334
2.56923723 0.89136332 -0.23441613
2.50164580 0.86920315 0.50757277
2.85200644 0.42868769 0.24926542
2.53012443 0.87572747 0.32401589
2.86735940 0.43046713 0.05000114
2.55305386 0.88173032 0.13973700
2.57296443 0.88764518 -0.04690334
2.57549548 0.88851023 -0.23485105
2.49969411 0.85820889 0.69790101
2.51312566 0.85848480 0.50900251
2.84935403 0.41254023 0.24882965
2.53012967 0.86041951 0.32340741
2.56251311 0.86951661 0.13999867
2.58955956 0.87774307 -0.04712150
2.58482671 0.87662053 -0.23528595
2.49661994 0.85227627 0.69660860
2.51926517 0.85568392 0.50995576
2.85746670 0.40861925 0.24948332
2.53382754 0.85724330 0.32371163
2.56387544 0.86549044 0.13999867
2.58635283 0.87161767 -0.04703423
2.58399415 0.87130803 -0.23506850
2.64348507 0.89350444 -0.43597120
2.51005411 0.84271961 0.69919342
2.52821636 0.84448493 0.51090890
2.85703087 0.39381272 0.24926542
2.53828120 0.84396458 0.32371163
2.55889893 0.84889376 0.13947532
2.59073114 0.85851586 -0.04703423
2.59073353 0.85900593 -0.23528595
2.60596919 0.86556971 -0.42893940
2.50923133 0.83756882 0.69854718
2.53201413 0.84084857 0.51138550
2.87252188 0.39083043 0.25057277
2.55623317 0.84501308 0.32584134
2.57222509 0.84835619 0.14012952
2.58510733 0.85163450 -0.04690334
2.59459305 0.85526675 -0.23550341
2.60278916 0.85946375 -0.42815810
2.52060723 0.82624936 0.70048583
2.53885865 0.82790178 0.51186210
2.86965466 0.37464133 0.25013697
2.55604982 0.82962996 0.32523283
2.57677746 0.83442676 0.14012952
2.59443116 0.83918178 -0.04699060
2.60865545 0.84429955 -0.23637323
2.60960102 0.84658968 -0.42854875
2.52434039 0.82260102 0.70113200
2.54263282 0.82423007 0.51233870
2.88265562 0.37121460 0.25122643
2.55971003 0.82638031 0.32553709
2.58996034 0.83422524 0.14078373
2.59113503 0.83311415 -0.04690334
2.60538578 0.83821177 -0.23593831
2.61107445 0.84203380 -0.42854875
2.52617288 0.80907309 0.70048583
2.54443502 0.81060123 0.51186210
2.88696957 0.35692340 0.25144431
2.56636596 0.81372046 0.32584134
2.58715534 0.81838191 0.14039120
2.60008311 0.82150269 -0.04699060
2.61923313 0.82757580 -0.23680812
2.62250614 0.83059943 -0.42972073
2.54832506 0.80645931 0.51233870
2.89747763 0.35308266 0.25231588
2.57960939 0.81298971 0.32736254
2.60048175 0.81762928 0.14104539
2.60389662 0.81771648 -0.04703423
2.61592388 0.82150286 -0.23637323
2.63101411 0.82825714 -0.43089268
2.56422448 0.79676664 0.51472169
2.90676761 0.33825946 0.25296953
2.58633971 0.79975784 0.32766676
2.60486722 0.80354744 0.14104539
2.62022066 0.80731612 -0.04725239
2.62732553 0.81000787 -0.23702559
2.63295650 0.81373680 -0.43050203
2.56795454 0.79301810 0.51519823
2.91230273 0.33374956 0.25340533
2.58048081 0.79349411 0.32675403
2.61805439 0.80313569 0.14169960
2.61923671 0.80200577 -0.04720876
2.62397552 0.80395395 -0.23659068
2.63673210 0.80986917 -0.43089268
2.57193565 0.78001040 0.51519823
2.59409785 0.78285569 0.32797101
2.62700224 0.79086393 0.14196128
2.62326241 0.78873849 -0.04720876
2.62801099 0.79066259 -0.23659068
2.64566278 0.79748547 -0.43167400
2.57799053 0.77694476 0.51615149
2.59070897 0.77689344 0.32736254
2.62837863 0.78627771 0.14196128
2.62463498 0.78415883 -0.04720876
2.62938690 0.78607464 -0.23659068
2.64941454 0.79357910 -0.43206465
2.58437514 0.76413584 0.51662809
2.60187912 0.76543087 0.32827523
2.62767076 0.77109092 0.14169960
2.64069247 0.77394056 -0.04742691
2.64315653 0.77465463 -0.23746051
2.66063738 0.78179628 -0.43323663
2.59054446 0.76056349 0.51758122
2.60559177 0.76158881 0.32857949
2.63859487 0.76931477 0.14222296
2.64443827 0.77003342 -0.04747054
2.64928460 0.77144074 -0.23789540
2.65962887 0.77645546 -0.43284598
2.59449124 0.74698901 0.51758122
2.62159562 0.75091660 0.33010069
2.64751744 0.75640702 0.14248464
2.64616323 0.75502449 -0.04742691
2.65328741 0.75755858 -0.23789540
2.67552161 0.76593667 -0.43479925
2.60522461 0.74517530 0.51948762
2.63231373 0.74953187 0.33131763
2.63429999 0.74813116 0.14169960
2.64747667 0.75040495 -0.04742691
2.66418529 0.75566083 -0.23876522
2.67922831 0.76194519 -0.43518987
2.60660124 0.73131263 0.51901102
2.64098024 0.73708105 0.33192614
2.64539289 0.73634815 0.14209211
2.64883399 0.73632181 -0.04738328
2.68009758 0.74505591 -0.23985250
2.68793631 0.74924034 -0.43597120
2.61508942 0.72829437 0.52044082
2.64704299 0.73380429 0.33253458
2.64426875 0.73106068 0.14196128
2.66456509 0.73571318 -0.04764507
2.68619299 0.74171084 -0.24028742
2.68686104 0.74388510 -0.43558055
2.61650062 0.71394175 0.51996422
2.66294289 0.72274148 0.33405581
2.65300298 0.71805578 0.14222296
2.66609502 0.72062957 -0.04760144
2.70686126 0.73221552 -0.24180959
2.69071913 0.72980660 -0.43558055
2.61774278 0.70937401 0.51996422
2.65689087 0.71660715 0.33314309
2.65653753 0.71454000 0.14235380
2.66734838 0.71597534 -0.04760144
2.70332670 0.72618991 -0.24137467
2.70390511 0.72834015 -0.43753383
2.62367058 0.69674927 0.52044082
2.66540241 0.70396113 0.33375156
2.66506863 0.70190024 0.14261547
2.68060374 0.70502460 -0.04777596
2.71190691 0.71330035 -0.24180959
2.71006846 0.71480632 -0.43792450
2.63686371 0.69485790 0.52282375
2.67142558 0.70057499 0.33436003
2.66870427 0.69788349 0.14274631
2.67941260 0.69970948 -0.04773233
2.71073937 0.70793295 -0.24159214
2.70892406 0.70944571 -0.43753383
2.63571501 0.67980790 0.52187061
2.67517686 0.68611103 0.33436003
2.67485857 0.68405682 0.14287716
2.68800092 0.68644726 -0.04781959
2.72164464 0.69559175 -0.24224450
2.72455621 0.69833720 -0.43948710
2.63927388 0.67581958 0.52234721
2.67865491 0.68252474 0.33466429
2.68076730 0.68109185 0.14313883
2.69161677 0.68237299 -0.04786322
2.72526765 0.69145691 -0.24246195
2.72098684 0.69235522 -0.43870577
2.64504004 0.66305315 0.52282375
2.67256474 0.66607368 0.33344734
2.68187451 0.66643995 0.14300799
2.69988632 0.66995281 -0.04795048
2.72148395 0.67584175 -0.24180959
2.72936511 0.67929935 -0.43948710
2.65333509 0.66022557 0.52425355
2.68335462 0.66380769 0.33466429
2.69272542 0.66416568 0.14353135
2.70347762 0.66584128 -0.04799411
2.72991085 0.67289072 -0.24246195
2.73773527 0.67632306 -0.44065908
2.65437198 0.64573956 0.52377695
2.67714977 0.64739954 0.33344734
2.69131398 0.64887923 0.14326967
2.73121881 0.65756720 -0.04843042
2.72613597 0.65682584 -0.24180959
2.73883963 0.66139555 -0.44026840
2.66264868 0.64284575 0.52520674
2.67827582 0.64272612 0.33344734
2.69729638 0.64535087 0.14353135
2.73236227 0.65279931 -0.04843042
2.73454213 0.65381610 -0.24246195
2.66847563 0.62899721 0.52568334
2.68654394 0.62936580 0.33405581
2.70560932 0.63189131 0.14379303
2.74072099 0.63914967 -0.04851769
2.74046397 0.63958126 -0.24267942
2.66956925 0.62433892 0.52568334
2.69236112 0.62627751 0.33466429
2.71632290 0.62991244 0.14431639
2.76617622 0.64003915 -0.04895400
2.73915052 0.63423157 -0.24246195
2.67508698 0.61136985 0.52615994
2.71011686 0.61549312 0.33648971
2.71958375 0.61568129 0.14431639
2.77181745 0.62658519 -0.04899763
2.75457549 0.62264597 -0.24354923
2.68582606 0.60841781 0.52806634
2.71602654 0.61186081 0.33709821
2.73039460 0.61313772 0.14483975
2.77290702 0.62174648 -0.04899763
2.75079942 0.61673975 -0.24311431
2.68657923 0.59381294 0.52758974
2.72656584 0.59876555 0.33801094
2.73610973 0.59889376 0.14497060
2.78843594 0.60942262 -0.04921578
2.76371956 0.60447252 -0.24398413
2.69959331 0.59177053 0.52997267
2.73235011 0.59554672 0.33861941
2.74924111 0.59726501 0.14562480
2.78705311 0.60402161 -0.04917215
2.76963639 0.60071170 -0.24441905
2.70255399 0.57809919 0.52997267
2.72572541 0.57915324 0.33740246
2.75233054 0.58286190 0.14562480
2.78029585 0.58782351 -0.04899763
2.77264142 0.58668566 -0.24441905
2.70835876 0.57440782 0.53092587
2.73644114 0.57645696 0.33861941
2.76555586 0.58064193 0.14627899
2.77887177 0.58245331 -0.04895400
2.78584433 0.58442187 -0.24550633
2.73942208 0.56212115 0.33861941
2.76855826 0.56615365 0.14627899
2.78678012 0.56890309 -0.04904126
2.80360198 0.57235295 -0.24681105
2.74526024 0.55833620 0.33922789
2.78421831 0.56431991 0.14706403
2.79021835 0.56453800 -0.04908489
2.74824095 0.54347479 0.33922789
2.78233337 0.54827446 0.14680235
2.79323196 0.54943329 -0.04908489
2.75395989 0.54012036 0.33983639
2.81503415 0.55017954 0.14850326
2.80154443 0.54600364 -0.04921578
2.76649714 0.52756846 0.34105334
2.81542468 0.53496259 0.14837244
2.79690695 0.53040779 -0.04908489
2.76497626 0.52227467 0.34074908
2.79918432 0.52678823 0.14745654
2.81010818 0.52785242 -0.04930305
2.77508163 0.50866121 0.34166181
2.80690432 0.51254034 0.14771824
2.81783938 0.51354474 -0.04939031
2.78075862 0.50519651 0.34227031
2.80033803 0.50678509 0.14732571
2.82610893 0.50996935 -0.04952120
2.78825164 0.49149910 0.34287876
2.80541134 0.49255124 0.14745654
2.82619262 0.49522331 -0.04947757
2.79399323 0.48749289 0.34348726
2.81364369 0.48894835 0.14784908
2.82951474 0.49072093 -0.04952120
2.80139899 0.47369227 0.34409574
2.82601047 0.47588348 0.14837244
2.88133335 0.48426199 -0.05039382
2.80711532 0.46962896 0.34470421
2.82437468 0.47053623 0.14824159
2.85012746 0.47385231 -0.04982662
2.81451273 0.45523450 0.34531268
2.84166408 0.45765331 0.14902662
2.82257342 0.45200190 0.34622544
2.84237957 0.45318910 0.14902662
2.82490134 0.43721679 0.34622544
2.84471345 0.43830028 0.14902662
2.83056474 0.43304414 0.34683388
2.85287666 0.43447405 0.14941916
2.83532047 0.41808897 0.34713814
2.86259437 0.42013150 0.14981167
2.84088326 0.41435885 0.34774661
2.86325073 0.41563442 0.14981167
2.84792733 0.40017685 0.34835511
2.87280345 0.40168568 0.15020418
2.86090803 0.39693022 0.34987631
2.87102747 0.39632580 0.15007335
2.85809541 0.38078225 0.34926781
2.87807870 0.38145012 0.15033503
2.86852860 0.37760329 0.35048476
