3.06439400 -0.18012691 0.48011526
3.07548356 -0.18079185 0.26647869
3.03544450 0.38314518 0.37086886
3.06667113 -0.18027440 0.05301168
3.03917837 0.38148472 0.15870878
3.07789874 -0.18148053 -0.15975550
3.04297662 0.38089421 -0.05292442
3.06924009 -0.18257123 -0.37269431
3.02702451 0.37939787 -0.26333761
3.03805709 0.38238308 -0.47894326
3.06900430 -0.18577649 0.48089653
3.07516336 -0.18615931 0.26647869
3.03118515 0.37722650 0.37026042
3.06884694 -0.18577908 0.05305531
3.03488541 0.37555912 0.15844710
3.07508564 -0.18669936 -0.15962467
3.04115629 0.37527284 -0.05288079
3.06644011 -0.18777457 -0.37239009
3.02768183 0.37411413 -0.26333761
3.03381991 0.37646458 -0.47816196
3.06798959 -0.20184313 0.48089653
3.07166147 -0.20209314 0.26626077
3.03558207 0.36164740 0.37056464
3.06284380 -0.20151356 0.05296805
3.03928900 0.35996079 0.15857795
3.06908393 -0.20246604 -0.15936297
3.04556131 0.35964113 -0.05292442
3.06541491 -0.20382775 -0.37239009
3.02465367 0.35766378 -0.26290271
3.03078341 0.36051351 -0.47738063
3.07013273 -0.20682959 0.48128721
3.08124304 -0.20813145 0.26713234
3.03121829 0.35629192 0.36995617
3.07495666 -0.20770900 0.05318620
3.03489208 0.35459936 0.15831625
3.06623507 -0.20765206 -0.15923214
3.04866648 0.35461754 -0.05296805
3.06261539 -0.20847256 -0.37208584
3.02774644 0.35267609 -0.26312014
3.04366827 0.35667872 -0.47933394
3.07147026 -0.22308230 0.48167786
3.07766652 -0.22354235 0.26691446
3.03304243 0.34041566 0.36995617
3.08134484 -0.22381793 0.05331710
3.04414940 0.33954528 0.15870878
3.06759548 -0.22388718 -0.15936297
3.03800321 0.33778274 -0.05274990
3.06395674 -0.22468850 -0.37239009
3.02707696 0.33653921 -0.26290271
3.05285501 0.34157205 -0.48050591
3.06615114 -0.22807322 0.48089653
3.06982112 -0.22835463 0.26626077
3.03116560 0.33484530 0.36965191
3.07592440 -0.22935843 0.05322984
3.03977489 0.33367947 0.15844710
3.06968951 -0.22942843 -0.15949382
3.04107237 0.33275554 -0.05279353
3.06850815 -0.23041043 -0.37299854
3.02765965 0.33125547 -0.26290271
3.07471776 -0.24545142 0.48245916
3.07847047 -0.24575946 0.26713234
3.03786826 0.31896597 0.37026042
3.07717276 -0.24566117 0.05327347
3.04898357 0.31801599 0.15883961
3.07093477 -0.24569872 -0.15962467
3.04282832 0.31629694 -0.05279353
3.07216334 -0.24741070 -0.37360704
3.02439904 0.31487492 -0.26246780
3.06940627 -0.24987710 0.48167786
3.08051872 -0.25133610 0.26735023
3.03836536 0.31419373 0.37026042
3.07673931 -0.25103146 0.05327347
3.04699636 0.31296748 0.15870878
3.07547760 -0.25146812 -0.15988633
3.05332065 0.31201696 -0.05296805
3.06929803 -0.25203151 -0.37330279
3.02742124 0.30985320 -0.26268524
3.07051611 -0.26615974 0.48206854
3.07920718 -0.26692471 0.26735023
3.03256106 0.29754251 0.36934766
3.07044888 -0.26616612 0.05318620
3.04610896 0.29676345 0.15857795
3.07660580 -0.26778582 -0.16001718
3.04739833 0.29582310 -0.05283716
3.06793618 -0.26809880 -0.37330279
3.03148079 0.29424179 -0.26290271
3.07496572 -0.27195656 0.48284984
3.08121729 -0.27251950 0.26756814
3.03307581 0.29224926 0.36934766
3.07242203 -0.27228272 0.05322984
3.04910707 0.29168797 0.15870878
3.06618714 -0.27226564 -0.15949382
3.04542208 0.29026306 -0.05279353
3.06746364 -0.27345294 -0.37330279
3.02703166 0.28847042 -0.26246780
3.07590771 -0.28882203 0.48324049
3.08465672 -0.28965521 0.26800391
3.03955460 0.27629128 0.36995617
3.07095432 -0.28836605 0.05322984
3.04566836 0.27473050 0.15844710
3.06969047 -0.28878710 -0.15975550
3.04943728 0.27400899 -0.05283716
3.06593943 -0.29004541 -0.37330279
3.03346109 0.27307108 -0.26290271
3.07790804 -0.29388955 0.48363116
3.07918835 -0.29456106 0.26756814
3.04245615 0.27174091 0.37026042
3.07791042 -0.29444414 0.05336073
3.04609609 0.26994604 0.15844710
3.07663655 -0.29486343 -0.16014802
3.04244161 0.26801708 -0.05270626
3.07782936 -0.29605669 -0.37482399
3.03393292 0.26777628 -0.26290271
3.07632732 -0.31000134 0.48363116
3.07518005 -0.30989116 0.26735023
3.04136491 0.25559545 0.36995617
3.07389402 -0.30976686 0.05331710
3.04000497 0.25335985 0.15805459
3.08007264 -0.31093645 -0.16040969
3.05123162 0.25324592 -0.05283716
3.07376814 -0.31191593 -0.37451977
3.03524947 0.25241679 -0.26290271
3.08206677 -0.31602460 0.26800391
3.03933334 0.25007963 0.36965191
3.08080816 -0.31590089 0.05344799
3.03795481 0.24784695 0.15792374
3.07455850 -0.31579843 -0.16014802
3.04419565 0.24730182 -0.05270626
3.07075119 -0.31702384 -0.37421554
3.03568530 0.24711889 -0.26290271
3.08284569 -0.33242643 0.26822180
3.03812718 0.23396811 0.36934766
3.07911181 -0.33202755 0.05344799
3.04169965 0.23213063 0.15805459
3.07032299 -0.33215863 -0.16001718
3.04544878 0.23135912 -0.05270626
3.07644939 -0.33390573 -0.37512824
3.03449488 0.23049836 -0.26268524
3.04100513 0.22885516 0.36965191
3.10579848 -0.34095562 0.05392793
3.04458976 0.22701088 0.15818542
3.07718277 -0.33834004 -0.16040969
3.04584789 0.22604346 -0.05270626
3.07586193 -0.33927464 -0.37512824
3.02992535 0.22482572 -0.26225033
3.04962420 0.21292815 0.37056464
3.07665682 -0.35405251 0.05344799
3.04577327 0.21053483 0.15818542
3.08032918 -0.35502216 -0.16067138
3.04951978 0.20973586 -0.05274990
3.06905150 -0.35533768 -0.37451977
3.03354573 0.20913310 -0.26246780
3.04256487 0.20708853 0.36965191
3.05111742 0.20556170 0.15844710
3.05486846 0.20475489 -0.05283716
3.07335567 -0.36127615 -0.37512824
3.03887558 0.20417964 -0.26290271
3.05100322 0.19216524 0.37056464
3.04713583 0.18979819 0.15818542
3.05087686 0.18897372 -0.05274990
3.07395029 -0.37713084 -0.37543249
3.03493190 0.18795003 -0.26246780
3.05381036 0.18699534 0.37086886
3.04746246 0.18447964 0.15818542
3.04621243 0.18334086 -0.05266263
3.03774118 0.18280616 -0.26268524
3.04982257 0.17018603 0.37026042
3.05090857 0.16812977 0.15831625
3.04965544 0.16699706 -0.05270626
3.03368330 0.16661747 -0.26225033
3.04760885 0.16525708 0.36995617
3.05366135 0.16347440 0.15844710
3.05493379 0.16194624 -0.05279353
3.03894305 0.16159444 -0.26268524
3.05091047 0.14942276 0.37026042
3.05198240 0.14735915 0.15831625
3.05072141 0.14623500 -0.05270626
3.03477240 0.14543447 -0.26225033
3.04125261 0.14361453 0.36904344
3.05223489 0.14203222 0.15831625
3.04847527 0.14079122 -0.05266263
3.03750944 0.14025621 -0.26246780
3.04446411 0.12726513 0.36934766
3.06044149 0.12583490 0.15870878
3.05918169 0.12471757 -0.05283716
3.03322577 0.12413881 -0.26203290
3.04713941 0.12258621 0.36965191
3.05065751 0.12061794 0.15818542
3.05190229 0.11907455 -0.05270626
3.03592587 0.11894590 -0.26225033
3.05021977 0.10672033 0.36995617
3.06122684 0.10500038 0.15870878
3.05496383 0.10371457 -0.05274990
3.03650737 0.10304826 -0.26225033
3.05040121 0.10139653 0.36995617
3.05392003 0.09940252 0.15831625
3.05014396 0.09821413 -0.05266263
3.03668261 0.09774840 -0.26225033
3.05338550 0.08496362 0.37026042
3.05191779 0.08280640 0.15818542
3.05312920 0.08178058 -0.05270626
3.03715253 0.08184711 -0.26225033
3.04359317 0.07989185 0.36904344
3.05204439 0.07801235 0.15818542
3.05576587 0.07651804 -0.05274990
3.04476023 0.07674565 -0.26290271
3.05637383 0.06423394 0.37056464
3.05740261 0.06213981 0.15844710
3.06111193 0.06115782 -0.05283716
3.04760981 0.06085581 -0.26312014
3.04903865 0.05874486 0.36965191
3.05501056 0.05675345 0.15831625
3.05121779 0.05561790 -0.05266263
3.04771137 0.05553663 -0.26312014
3.05675530 0.04236152 0.37056464
3.04778409 0.04011370 0.15792374
3.04897451 0.03907271 -0.05261900
3.03799939 0.03943385 -0.26225033
3.04441214 0.03738887 0.36904344
3.05033970 0.03535888 0.15805459
3.05403709 0.03381402 -0.05270626
3.04553485 0.03422668 -0.26290271
3.04704714 0.02146915 0.36934766
3.04798651 0.01936732 0.15792374
3.05916810 0.01839330 -0.05279353
3.04068804 0.01877322 -0.26246780
3.04708004 0.01615101 0.36934766
3.05300879 0.01407806 0.15818542
3.05919552 0.01305402 -0.05279353
3.04569721 0.01349575 -0.26290271
3.05704856 0.00021198 0.37056464
3.05803347 -0.00190322 0.15844710
3.06172156 -0.00296269 -0.05283716
3.04323506 -0.00298448 -0.26268524
3.05456328 -0.00512314 0.37026042
3.05802536 -0.00724049 0.15844710
3.05671239 -0.00830029 -0.05274990
3.04571557 -0.00829896 -0.26290271
3.06441617 -0.02170520 0.37147737
3.05294871 -0.02375444 0.15818542
3.06162190 -0.02487165 -0.05283716
3.04812074 -0.02426219 -0.26312014
3.05445290 -0.02644772 0.37026042
3.05290771 -0.02854997 0.15818542
3.06157374 -0.03021515 -0.05283716
3.04807377 -0.02958212 -0.26312014
3.06171608 -0.04253260 0.37117311
3.06020546 -0.04463253 0.15857795
3.06138182 -0.04571071 -0.05283716
3.05037546 -0.04504240 -0.26333761
3.06163716 -0.04787624 0.37117311
3.06511521 -0.05004760 0.15883961
3.05879807 -0.05101581 -0.05279353
3.05029225 -0.05036624 -0.26333761
3.05140972 -0.06424650 0.36995617
3.05731130 -0.06647903 0.15844710
3.05847716 -0.06756467 -0.05279353
3.05246496 -0.06691995 -0.26355505
3.05874753 -0.06919676 0.37086886
3.05969906 -0.07133582 0.15857795
3.05585551 -0.07284678 -0.05274990
3.04487419 -0.07208180 -0.26290271
3.05586267 -0.08514591 0.37056464
3.06177926 -0.08742284 0.15870878
3.06294394 -0.08851831 -0.05288079
3.05442858 -0.08776351 -0.26377252
3.06563115 -0.09075814 0.37178159
3.05663109 -0.09262275 0.15844710
3.05778766 -0.09371832 -0.05279353
3.04680204 -0.09287791 -0.26312014
3.06511402 -0.10680842 0.37178159
3.05859923 -0.10871085 0.15857795
3.05225873 -0.10955565 -0.05270626
3.05125237 -0.10899995 -0.26355505
3.06492257 -0.11215789 0.37178159
3.06089973 -0.11413825 0.15870878
3.06455278 -0.11533412 -0.05292442
3.06350207 -0.11477285 -0.26464233
3.07421112 -0.12860425 0.37299854
3.06774378 -0.13047054 0.15910131
3.05641437 -0.13106832 -0.05279353
3.06037068 -0.13070910 -0.26442489
3.07150292 -0.13386522 0.37269431
3.06252289 -0.13561112 0.15883961
3.05618095 -0.13640256 -0.05279353
3.06262636 -0.13615716 -0.26464233
3.07323837 -0.15006298 0.37299854
3.07174563 -0.15212366 0.15936297
3.06291509 -0.15276515 -0.05292442
3.06681991 -0.15296620 -0.26507723
3.06801486 -0.15518327 0.37239009
3.06898212 -0.15736049 0.15923214
3.06514001 -0.15823586 -0.05296805
3.06903577 -0.15844327 -0.26529470
3.07208610 -0.17205058 0.37299854
3.06808567 -0.17396291 0.15923214
3.06673479 -0.17495613 -0.05301168
3.05821705 -0.17395957 -0.26442489
3.07181191 -0.17687599 0.37299854
3.06531596 -0.17864048 0.15910131
3.06143403 -0.18002230 -0.05292442
3.06039548 -0.17943895 -0.26464233
3.08075094 -0.19356515 0.37421554
3.06932235 -0.19499709 0.15936297
3.07046270 -0.19613782 -0.05309894
3.05944777 -0.19492665 -0.26464233
3.07545519 -0.19862927 0.37360704
3.07146835 -0.20051271 0.15949382
3.06263161 -0.20101647 -0.05296805
3.05413198 -0.19994812 -0.26420742
3.07437301 -0.21472953 0.37360704
3.07037663 -0.21659204 0.15949382
3.06403136 -0.21722260 -0.05301168
3.05549002 -0.21664198 -0.26442489
3.07151818 -0.21992147 0.37330279
3.06999397 -0.22195053 0.15949382
3.07112741 -0.22310226 -0.05314257
3.06255984 -0.22250479 -0.26507723
3.06780887 -0.23634976 0.37299854
3.07372689 -0.23893708 0.15975550
3.06987524 -0.23971529 -0.05314257
3.06631970 -0.23891674 -0.26551217
3.06990790 -0.24135917 0.37330279
3.06836963 -0.24337757 0.15949382
3.06446815 -0.24468240 -0.05305531
3.05596614 -0.24349169 -0.26464233
3.07107520 -0.25763354 0.37360704
3.07451725 -0.26006028 0.15988633
3.07066321 -0.26081344 -0.05318620
3.06705856 -0.26052478 -0.26572961
3.07556653 -0.26340935 0.37421554
3.07903385 -0.26584810 0.16014802
3.07020354 -0.26617232 -0.05318620
3.06908107 -0.26608884 -0.26594704
3.07656741 -0.28026727 0.37451977
3.07506418 -0.28227878 0.16001718
3.06622887 -0.28255406 -0.05314257
3.06020474 -0.28148150 -0.26529470
3.07859492 -0.28532493 0.37482399
3.07710290 -0.28733715 0.16014802
3.07070923 -0.28836527 -0.05322984
3.05970836 -0.28682217 -0.26529470
3.07211876 -0.30096391 0.37421554
3.07307148 -0.30320337 0.16001718
3.07169819 -0.30414641 -0.05327347
3.06565404 -0.30302888 -0.26594704
3.07405829 -0.30656785 0.37451977
3.07502198 -0.30881220 0.16014802
3.07365012 -0.30975404 -0.05331710
3.07007718 -0.30887029 -0.26638198
3.08475232 -0.32393685 0.37604097
3.07336307 -0.32490867 0.16014802
3.06950021 -0.32558331 -0.05327347
3.06340718 -0.32495832 -0.26594704
3.07775664 -0.33079848 0.16040969
3.07389832 -0.33146873 -0.05336073
3.06531191 -0.33056784 -0.26616451
3.07702851 -0.34865072 -0.05344799
3.06848931 -0.34716579 -0.26659942
3.07282805 -0.35308209 -0.26703432
3.07835674 -0.37004724 -0.26768669
3.04369831 0.48457140 0.48206854
3.02502322 0.47619873 0.47894326
3.02511406 0.45945570 0.47855264
3.03847814 0.46147063 0.26582500
3.02972388 0.46014053 0.05288079
3.03071642 0.45543414 0.47933394
3.03927898 0.45616680 0.26582500
3.02063370 0.45337409 0.05270626
3.02817154 0.43885392 0.47855264
3.03415418 0.43971094 0.26517135
3.02288961 0.43807954 0.05270626
3.03422761 0.43863413 -0.15883961
3.03382206 0.43426478 0.47933394
3.04231358 0.43546864 0.26582500
3.03362417 0.43368402 0.05288079
3.02262998 0.43158105 -0.15818542
3.02634144 0.41650349 0.47777131
3.03722310 0.41798788 0.26517135
3.03337646 0.41745484 0.05283716
3.03968954 0.41777909 -0.15897046
3.02412033 0.41404223 -0.36995617
3.03195763 0.41188258 0.47855264
3.04041576 0.41301998 0.26538923
3.03657770 0.41249493 0.05288079
3.03546572 0.41180500 -0.15870878
3.03221607 0.40975580 -0.37086886
3.03400373 0.39653125 0.47855264
3.03752804 0.39698344 0.26495346
3.03366899 0.39647540 0.05279353
3.03503537 0.39611444 -0.15857795
3.03425121 0.39440322 -0.37086886
3.03714013 0.39154947 0.47894326
3.03574610 0.39136446 0.26473558
3.02691841 0.39022595 0.05266263
3.02829313 0.38986504 -0.15818542
3.02262735 0.38753673 -0.36934766
3.03914881 0.37564176 0.47894326
3.04269719 0.37607196 0.26517135
3.03636312 0.37528694 0.05279353
3.03035831 0.37347475 -0.15818542
3.02954149 0.37230733 -0.36995617
3.02999449 0.36914855 0.47738063
3.03345942 0.36956236 0.26429981
3.03211474 0.36885628 0.05270626
3.03596234 0.36878419 -0.15844710
3.03511381 0.36761284 -0.37056464
3.04175878 0.35388461 0.47894326
3.04778433 0.35457563 0.26538923
3.03152156 0.35268784 0.05266263
3.03041148 0.35202339 -0.15805459
3.03705859 0.35118601 -0.37056464
3.03985786 0.34882629 0.47855264
3.04839873 0.34925574 0.26538923
3.03461623 0.34767929 0.05270626
3.02854085 0.34645161 -0.15792374
3.03020954 0.34557611 -0.36965191
3.03182340 0.33183646 0.47699001
3.04517555 0.33328322 0.26495346
3.03385210 0.33204496 0.05266263
3.04024124 0.33166632 -0.15844710
3.03691173 0.33023873 -0.37026042
3.03485322 0.32680723 0.47738063
3.04327631 0.32770279 0.26473558
3.03448391 0.32621977 0.05266263
3.03585052 0.32582989 -0.15818542
3.03008056 0.32415059 -0.36934766
3.03903365 0.31063196 0.47777131
3.04500484 0.31123239 0.26473558
3.03366351 0.31007421 0.05261900
3.03254724 0.30942610 -0.15792374
3.03425884 0.30800065 -0.36965191
3.03951764 0.30585790 0.47777131
3.04306507 0.30566999 0.26451766
3.03419995 0.30477899 0.05261900
3.03556705 0.30438033 -0.15805459
3.03473902 0.30323413 -0.36965191
3.04107761 0.28993887 0.47777131
3.05201149 0.29096821 0.26517135
3.03570366 0.28941768 0.05261900
3.03463364 0.28824756 -0.15792374
3.03628540 0.28734016 -0.36965191
3.03666162 0.28417370 0.47699001
3.04259562 0.28471911 0.26429981
3.03127599 0.28312725 0.05253174
3.03761816 0.28318086 -0.15805459
3.03431082 0.28181249 -0.36934766
3.04307437 0.26817012 0.47777131
3.04161072 0.26803595 0.26408190
3.03520727 0.26746961 0.05257537
3.03408480 0.26683778 -0.15779290
3.03331923 0.26517671 -0.36904344
3.03857160 0.26296705 0.47699001
3.05199909 0.26357782 0.26495346
3.03566933 0.26217178 0.05257537
3.03454590 0.26154190 -0.15779290
3.03125978 0.26020098 -0.36873919
3.03990674 0.24705359 0.47699001
3.04336452 0.24732630 0.26408190
3.04443192 0.24740624 0.05270626
3.04080796 0.24657984 -0.15805459
3.03505421 0.24452357 -0.36904344
3.04033303 0.24174760 0.47699001
3.04379153 0.24201427 0.26408190
3.04485893 0.24209236 0.05270626
3.04372239 0.24146816 -0.15818542
3.04042387 0.23961283 -0.36965191
3.03663230 0.22546266 0.47620869
3.04501700 0.22607376 0.26408190
3.04359221 0.22596276 0.05266263
3.04000473 0.22463176 -0.15792374
3.03916192 0.22350955 -0.36934766
3.04194689 0.22051634 0.47699001
3.05285931 0.22129434 0.26473558
3.04402018 0.22011909 0.05266263
3.03790188 0.21914753 -0.15779290
3.04449797 0.21855713 -0.36995617
3.04802322 0.20438197 0.47777131
3.05649686 0.20493868 0.26495346
3.05011940 0.20450898 0.05274990
3.03402567 0.20290814 -0.15753123
3.03820753 0.20159352 -0.36904344
3.03848386 0.19895478 0.47620869
3.04939389 0.19912165 0.26429981
3.04797745 0.19902392 0.05270626
3.03437519 0.19761246 -0.15753123
3.03604412 0.19666201 -0.36873919
3.04687881 0.18348329 0.47738063
3.04787660 0.18353665 0.26408190
3.05393577 0.18389158 0.05279353
3.03786039 0.18186951 -0.15766206
3.03950953 0.18090856 -0.36904344
3.04719424 0.17816521 0.47738063
3.05565119 0.17864822 0.26473558
3.05178785 0.17788422 0.05274990
3.03817320 0.17656715 -0.15766206
3.03734326 0.17546180 -0.36873919
3.04564786 0.16154654 0.47699001
3.05159903 0.16185232 0.26429981
3.05018115 0.16177191 0.05270626
3.04154897 0.16078719 -0.15779290
3.04816055 0.15953827 -0.36995617
3.05085731 0.15648051 0.47777131
3.04690242 0.15627404 0.26386401
3.04546571 0.15619516 0.05261900
3.03683829 0.15522672 -0.15753123
3.04843426 0.15421799 -0.36995617
3.05407691 0.14114924 0.47816196
3.05263019 0.14107716 0.26429981
3.05121183 0.14100640 0.05270626
3.04007912 0.13996722 -0.15766206
3.04173899 0.13845275 -0.36904344
3.04691815 0.13549422 0.47699001
3.04540706 0.13542189 0.26364613
3.04645848 0.13546187 0.05261900
3.04281282 0.13476996 -0.15779290
3.04693437 0.13335758 -0.36965191
3.05252075 0.11972926 0.47777131
3.05354047 0.11976252 0.26429981
3.04962420 0.11960527 0.05266263
3.04848695 0.11849568 -0.15805459
3.04511094 0.11730816 -0.36934766
3.04778981 0.11421959 0.47699001
3.05125618 0.11434121 0.26408190
3.04235411 0.11347541 0.05253174
3.04369926 0.11299279 -0.15779290
3.03787160 0.11172438 -0.36843497
3.05329895 0.09788299 0.47777131
3.04934096 0.09775250 0.26386401
3.04040813 0.09746568 0.05248811
3.04674459 0.09713253 -0.15792374
3.04587221 0.09551498 -0.36934766
3.04604459 0.09286571 0.47659937
3.05946422 0.09272579 0.26473558
3.04557109 0.09230734 0.05257537
3.04191852 0.09166756 -0.15766206
3.03857780 0.09051348 -0.36843497
3.04895759 0.07697622 0.47699001
3.05989432 0.07723933 0.26473558
3.05349541 0.07707572 0.05270626
3.04984426 0.07592060 -0.15805459
3.04893255 0.07483967 -0.36965191
3.04661870 0.07159822 0.47659937
3.05006528 0.07167094 0.26386401
3.05113888 0.07115658 0.05266263
3.05246806 0.07065371 -0.15818542
3.04905868 0.06951816 -0.36965191
3.04943037 0.05515655 0.47699001
3.05538869 0.05525446 0.26429981
3.05146980 0.05517995 0.05266263
3.05279660 0.05467013 -0.15818542
3.04442811 0.05293709 -0.36904344
3.04951334 0.05036645 0.47699001
3.05797029 0.04996083 0.26451766
3.05406046 0.04989332 0.05270626
3.05039072 0.04930314 -0.15805459
3.05443239 0.04830556 -0.37026042
3.05714250 0.03447749 0.47816196
3.06565523 0.03456202 0.26517135
3.05427408 0.03443475 0.05270626
3.04811072 0.03330502 -0.15792374
3.04968047 0.03226262 -0.36965191
3.04979062 0.02907578 0.47699001
3.05823970 0.02914489 0.26451766
3.05183506 0.02854909 0.05266263
3.04816389 0.02798501 -0.15792374
3.05717635 0.02700095 -0.37056464
3.05978060 0.01260896 0.47855264
3.06582427 0.01262396 0.26517135
3.05694199 0.01258686 0.05274990
3.05076551 0.01203283 -0.15805459
3.05231500 0.01044586 -0.36995617
3.05979753 0.00726862 0.47855264
3.06086040 0.00726438 0.26473558
3.05195975 0.00724274 0.05266263
3.05327845 0.00671215 -0.15818542
3.04736543 0.00511335 -0.36934766
3.06226301 -0.00876109 0.47894326
3.06334710 -0.00877097 0.26495346
3.05195618 -0.00873731 0.05266263
3.05576825 -0.00928395 -0.15831625
3.04983187 -0.01085301 -0.36965191
3.06224537 -0.01357127 0.47894326
3.06332707 -0.01411751 0.26495346
3.05943489 -0.01410322 0.05279353
3.05824375 -0.01463076 -0.15844710
3.05477405 -0.01567224 -0.37026042
3.05719423 -0.02955404 0.47816196
3.06072593 -0.02959650 0.26473558
3.06182361 -0.02961390 0.05283716
3.06561446 -0.03072315 -0.15883961
3.04968739 -0.03161214 -0.36965191
3.06207585 -0.03494927 0.47894326
3.06316018 -0.03496842 0.26495346
3.06426096 -0.03552267 0.05288079
3.06555629 -0.03607361 -0.15883961
3.05707121 -0.03702964 -0.37056464
3.06184196 -0.05151610 0.47894326
3.07288623 -0.05171498 0.26582500
3.06153321 -0.05152291 0.05283716
3.06033301 -0.05203625 -0.15857795
3.05186415 -0.05347930 -0.36995617
3.06422639 -0.05637255 0.47933394
3.06532145 -0.05693467 0.26517135
3.05644059 -0.05677024 0.05274990
3.06273389 -0.05742582 -0.15870878
3.05921912 -0.05841989 -0.37086886
3.06388927 -0.07241596 0.47933394
3.06748366 -0.07250927 0.26538923
3.06111169 -0.07236075 0.05283716
3.06239104 -0.07346139 -0.15870878
3.06135225 -0.07449897 -0.37117311
3.05882120 -0.07763492 0.47855264
3.07233167 -0.07799244 0.26582500
3.04793334 0.48846188 0.37421554
3.06096721 -0.07823753 0.05283716
3.06475377 -0.07887194 -0.15883961
3.05873680 -0.07977568 -0.37086886
3.06576061 -0.09441620 0.47972459
3.07435417 -0.09469236 0.26604292
3.03336978 0.46928257 0.37208584
3.06301427 -0.09434209 0.05288079
3.06679416 -0.09499666 -0.15897046
3.06074047 -0.09640345 -0.37117311
3.06065512 -0.09960307 0.47894326
3.06920576 -0.09989282 0.26560712
3.02682734 0.46285135 0.37117311
3.06034636 -0.09960503 0.05283716
3.03308606 0.46166912 0.15897046
3.06163335 -0.10018265 -0.15870878
3.06056762 -0.10174531 -0.37117311
3.06011200 -0.11509310 0.47894326
3.06617212 -0.11533096 0.26538923
3.02913141 0.44752532 0.37117311
3.05980325 -0.11509350 0.05283716
3.03538394 0.44631147 0.15897046
3.06108713 -0.11567763 -0.15870878
3.04167223 0.44616690 -0.05305531
3.06001353 -0.11723486 -0.37117311
3.06730843 -0.12072984 0.48011526
3.06347775 -0.12058275 0.26517135
3.03727221 0.44332403 0.37208584
3.06459284 -0.12063345 0.05292442
3.03862834 0.44137555 0.15910131
3.06088042 -0.12102006 -0.15870878
3.03749967 0.44013318 -0.05296805
3.06228352 -0.12267630 -0.37147737
3.03389192 0.44013348 -0.26464233
3.06910110 -0.13690008 0.48050591
3.06529236 -0.13673390 0.26538923
3.03709507 0.42706570 0.37178159
3.06142235 -0.13656494 0.05288079
3.04336977 0.42580903 0.15923214
3.06267476 -0.13769285 -0.15883961
3.03728747 0.42387381 -0.05292442
3.07151437 -0.13916406 -0.37269431
3.02143216 0.42162475 -0.26333761
3.06392455 -0.14202470 0.47972459
3.07500005 -0.14255118 0.26626077
3.03537869 0.42141941 0.37147737
3.06365108 -0.14255995 0.05292442
3.03669047 0.41946077 0.15883961
3.06492376 -0.14315605 -0.15897046
3.03554749 0.41822726 -0.05288079
3.06135249 -0.14405189 -0.37147737
3.01969671 0.41600710 -0.26312014
3.06557679 -0.15872918 0.48011526
3.07667089 -0.15931669 0.26647869
3.03515506 0.40465873 0.37117311
3.06286263 -0.15859914 0.05292442
3.03644109 0.40269271 0.15870878
3.07410455 -0.15972631 -0.15949382
3.04024315 0.40212873 -0.05292442
3.06548381 -0.16087641 -0.37208584
3.03170705 0.40151304 -0.26398996
3.03769064 0.40444261 -0.47933394
3.06778955 -0.16367748 0.48050591
3.07887506 -0.16482094 0.26669657
3.03086758 0.39923507 0.37056464
3.06258130 -0.16394460 0.05292442
3.03954482 0.39825061 0.15883961
3.06384969 -0.16454960 -0.15897046
3.04094028 0.39682192 -0.05292442
3.05779457 -0.16528501 -0.37117311
3.02252722 0.39491567 -0.26312014
3.04083967 0.39946550 -0.47972459
