2.66060710 1.38188922 0.46878624
2.67213750 1.38786149 0.26037779
2.68848562 1.39633238 0.05226995
2.66520905 1.37837625 0.46917689
2.67898130 1.38548088 0.26081356
2.68449783 1.38772893 0.05213906
2.69038057 1.39017045 -0.15687703
2.70338416 1.39569116 -0.36873919
2.67482805 1.36505699 0.46956754
2.69087648 1.37322736 0.26124933
2.68950009 1.37251914 0.05209543
2.69094896 1.37266564 -0.15648450
2.69762564 1.37429392 -0.36691374
2.67060018 1.35703492 0.46839559
2.69326901 1.36852872 0.26124933
2.69189143 1.36782300 0.05209543
2.69779348 1.37022519 -0.15674618
2.70223379 1.37070477 -0.36721799
2.68184972 1.34571254 0.46917689
2.70016146 1.35487950 0.26124933
2.70101500 1.35530043 0.05213906
2.70269847 1.35496330 -0.15661533
2.70247889 1.35368037 -0.36630529
2.68198466 1.33992767 0.46878624
2.70252204 1.35016465 0.26124933
2.70584917 1.35122752 0.05218269
2.70059037 1.34801710 -0.15635367
2.70483756 1.34896159 -0.36630529
2.68697953 1.32430685 0.46839559
2.70531797 1.33332372 0.26081356
2.71512961 1.33814490 0.05222632
2.70985198 1.33496022 -0.15648450
2.71209645 1.33430743 -0.36630529
2.68905663 1.32008457 0.46839559
2.70987773 1.32969582 0.26103145
2.71072674 1.33010495 0.05209543
2.70545101 1.32693470 -0.15609197
2.71418881 1.33004558 -0.36630529
2.69815469 1.30706179 0.46878624
2.71208930 1.31379437 0.26059568
2.71517396 1.31527948 0.05205180
2.71236181 1.31275094 -0.15609197
2.72781992 1.31905246 -0.36721799
2.69598198 1.30020821 0.46800491
2.71886587 1.31121957 0.26103145
2.71544218 1.30898046 0.05200817
2.71914840 1.31017947 -0.15635367
2.72788095 1.31321442 -0.36691374
2.70074677 1.28454340 0.46761426
2.72142100 1.29435349 0.26059568
2.71774244 1.29260015 0.05192091
2.72597122 1.29592407 -0.15635367
2.73270440 1.29737329 -0.36660951
2.70722580 1.28241086 0.46839559
2.72592735 1.29066598 0.26081356
2.72677374 1.29105937 0.05205180
2.72597146 1.29009795 -0.15622282
2.73473883 1.29307926 -0.36660951
2.71614099 1.26926231 0.46878624
2.73242497 1.27685249 0.26081356
2.72647786 1.27407122 0.05192091
2.73020387 1.27522898 -0.15609197
2.73472333 1.27559996 -0.36569679
2.71611238 1.26347971 0.46839559
2.73013186 1.26998353 0.26037779
2.73776555 1.27352190 0.05209543
2.73695421 1.27256441 -0.15635367
2.73469400 1.26978135 -0.36539254
2.72269082 1.24924099 0.46839559
2.73447990 1.25463414 0.26015988
2.73530626 1.25500596 0.05192091
2.73698878 1.25462079 -0.15596114
2.75033212 1.25957239 -0.36660951
2.72711372 1.24551141 0.46878624
2.73893166 1.25089288 0.26037779
2.73998499 1.25078881 0.05196454
2.74371815 1.25191164 -0.15622282
2.75252652 1.25477028 -0.36660951
2.72930789 1.22871375 0.46800491
2.74565935 1.23605573 0.26037779
2.75105643 1.23847449 0.05205180
2.74568105 1.23548257 -0.15596114
2.75248265 1.23681247 -0.36569679
2.73574257 1.22644246 0.46878624
2.74553919 1.23024476 0.26015988
2.74865031 1.23162985 0.05196454
2.75011230 1.23170757 -0.15609197
2.75895357 1.23451149 -0.36630529
2.73986745 1.21110439 0.46839559
2.75173068 1.21633244 0.26015988
2.75713611 1.21871102 0.05200817
2.75652361 1.21729112 -0.15609197
2.75856662 1.21704829 -0.36539254
2.74649882 1.20830643 0.46917689
2.75840998 1.21353102 0.26059568
2.76175928 1.21442008 0.05205180
2.76093030 1.21348143 -0.15622282
2.76523209 1.21422422 -0.36600104
2.75299621 1.19342887 0.46917689
2.75807858 1.19562149 0.25994200
2.76349211 1.19795763 0.05196454
2.76495481 1.19801748 -0.15609197
2.77631712 1.20121300 -0.36660951
2.75259972 1.18812597 0.46878624
2.76244831 1.19179106 0.26015988
2.76098680 1.19115508 0.05187728
2.77392101 1.19615126 -0.15648450
2.77364135 1.19488990 -0.36600104
2.76332855 1.17562759 0.46956754
2.76844501 1.17779386 0.26015988
2.77158213 1.17911959 0.05196454
2.77095294 1.17771041 -0.15596114
2.77985978 1.18035078 -0.36600104
2.76537609 1.17080295 0.46956754
2.77049661 1.17296028 0.26015988
2.77153826 1.17282367 0.05192091
2.77760386 1.17481446 -0.15622282
2.78191590 1.17549729 -0.36600104
2.76711082 1.15392578 0.46878624
2.78140092 1.15986753 0.26059568
2.78225660 1.16021717 0.05200817
2.78832746 1.16217303 -0.15648450
2.78594351 1.15947652 -0.36569679
2.76892018 1.14957786 0.46878624
2.77651811 1.15215194 0.25994200
2.78658652 1.15631580 0.05205180
2.79265809 1.15825951 -0.15661533
2.78776145 1.15509892 -0.36569679
2.77947354 1.13693082 0.46956754
2.78461981 1.13902557 0.26015988
2.79240322 1.14219701 0.05205180
2.79617357 1.14316666 -0.15648450
2.79836702 1.14235926 -0.36630529
2.77916598 1.13114858 0.46917689
2.78429627 1.13322628 0.25994200
2.78976107 1.13543987 0.05196454
2.79585123 1.13734531 -0.15635367
2.79345775 1.13467622 -0.36539254
2.77358818 1.11199450 0.46722364
2.79250407 1.11955762 0.26015988
2.79798913 1.12174594 0.05200817
2.79964542 1.12127495 -0.15622282
2.79936051 1.12003422 -0.36539254
2.78240681 1.10989225 0.46839559
2.79908133 1.11652458 0.26059568
2.80013728 1.11637211 0.05200817
2.80391812 1.11730981 -0.15635367
2.80822945 1.11789560 -0.36630529
2.78147435 1.09211874 0.46722364
2.80044365 1.09954631 0.26015988
2.80827141 1.10260737 0.05205180
2.80740523 1.10170269 -0.15622282
2.80961466 1.10087776 -0.36569679
2.78548646 1.08864570 0.46761426
2.80467892 1.09556174 0.26037779
2.80553365 1.09588838 0.05196454
2.80932379 1.09680116 -0.15622282
2.81827760 1.09916365 -0.36660951
2.79114842 1.07404602 0.46761426
2.80786300 1.08045900 0.26015988
2.81104469 1.08167446 0.05196454
2.81036663 1.08028805 -0.15596114
2.82399416 1.08439207 -0.36660951
2.79763198 1.07093561 0.46839559
2.81207108 1.07644570 0.26037779
2.81311607 1.07627559 0.05196454
2.81924486 1.07805204 -0.15635367
2.82124543 1.07769370 -0.36600104
2.79876256 1.05404568 0.46761426
2.82018542 1.06209135 0.26059568
2.82573199 1.06416976 0.05209543
2.82017660 1.06151986 -0.15609197
2.82935834 1.06328499 -0.36630529
2.80735326 1.05224359 0.46878624
2.82436728 1.05803978 0.26081356
2.82290292 1.05748582 0.05200817
2.82202506 1.05659616 -0.15609197
2.83567429 1.06057501 -0.36691374
2.80818963 1.03582382 0.46800491
2.83436084 1.04545164 0.26124933
2.82821918 1.04318416 0.05200817
2.82499385 1.04143691 -0.15596114
2.83187151 1.04229045 -0.36569679
2.81463075 1.03261900 0.46878624
2.83150363 1.03879046 0.26081356
2.83003545 1.03824639 0.05200817
2.83149600 1.03822076 -0.15622282
2.84300923 1.04075241 -0.36691374
2.81767559 1.01703072 0.46839559
2.83456087 1.02310669 0.26059568
2.84013581 1.02510834 0.05209543
2.84177041 1.02457643 -0.15648450
2.84141421 1.02333438 -0.36600104
2.81247282 1.00961316 0.46722364
2.82696414 1.01479816 0.25972411
2.83974552 1.01881123 0.05205180
2.84120369 1.01877379 -0.15635367
2.85487914 1.02254987 -0.36752224
2.82488132 0.99684203 0.46839559
2.83946061 1.00196970 0.26037779
2.84268332 1.00309825 0.05200817
2.84414387 1.00305450 -0.15622282
2.85100555 1.00379825 -0.36630529
2.82411313 0.99158698 0.46800491
2.83885431 0.99618930 0.26015988
2.85150719 1.00061381 0.05213906
2.85060334 0.99973857 -0.15648450
2.85960603 1.00177538 -0.36721799
2.81992793 0.97356915 0.46644232
2.84150529 0.98099661 0.25994200
2.85417175 0.98535401 0.05209543
2.85107684 0.98317432 -0.15622282
2.86011863 0.98517555 -0.36660951
2.82395911 0.96944618 0.46683297
2.84321332 0.97603571 0.25994200
2.85132885 0.97825330 0.05200817
2.85987520 0.98062158 -0.15661533
2.86887789 0.98258984 -0.36752224
2.83150315 0.95494062 0.46722364
2.85317326 0.96222699 0.26037779
2.85641170 0.96331042 0.05200817
2.85550523 0.96245044 -0.15609197
2.86944747 0.96547371 -0.36691374
2.83534098 0.95127565 0.46761426
2.85484862 0.95724583 0.26037779
2.86282945 0.95990986 0.05209543
2.86428380 0.95984054 -0.15648450
2.87096047 0.96096528 -0.36691374
2.84497404 0.93796015 0.46839559
2.86202264 0.94356221 0.26059568
2.86052799 0.94306409 0.05196454
2.87401390 0.94638866 -0.15674618
2.88066816 0.94746739 -0.36752224
2.85834217 0.93683118 0.47034886
2.86603212 0.93933970 0.26081356
2.86946106 0.93990022 0.05209543
2.86854172 0.93904549 -0.15635367
2.87995839 0.94166863 -0.36721799
2.85866666 0.91984266 0.46956754
2.87344360 0.92458057 0.26103145
2.87910295 0.92639118 0.05218269
2.88292813 0.92706424 -0.15687703
2.88264775 0.92531586 -0.36691374
2.86716485 0.91760468 0.47073954
2.87979817 0.92107856 0.26146722
2.87595272 0.91984493 0.05209543
2.87978435 0.92051381 -0.15661533
2.88646197 0.92153990 -0.36721799
2.86957383 0.90184087 0.47034886
2.88679981 0.90723598 0.26168510
2.88295698 0.90602463 0.05213906
2.88202477 0.90517974 -0.15648450
2.88887954 0.90567297 -0.36691374
2.86878586 0.89609635 0.46995822
2.62917900 1.39683914 0.57143641
2.88362312 0.90071410 0.26124933
2.88692021 0.90173525 0.05218269
2.89551783 0.90386027 -0.15713869
2.89282513 0.90136623 -0.36721799
2.88052249 0.88323039 0.47113016
2.64731407 1.38877082 0.57381934
2.88115549 0.88341767 0.26059568
2.67171645 1.39690399 0.36539254
2.88682151 0.88514459 0.05209543
2.89559078 0.88672191 -0.15687703
2.89987850 0.88693148 -0.36752224
2.87733459 0.87676501 0.47034886
2.65867019 1.38824296 0.57572573
2.88745832 0.87983644 0.26103145
2.67195106 1.39108956 0.36508831
2.89329910 0.88105398 0.05218269
2.67797208 1.39187908 0.15635367
2.89952278 0.88239205 -0.15700787
2.68833256 1.39609814 -0.05226995
2.90142226 0.88186884 -0.36752224
2.88440275 0.86188990 0.47073954
2.66372299 1.37317526 0.57524914
2.89694977 0.86562401 0.26146722
2.67723298 1.37547529 0.36478406
2.89547706 0.86517864 0.05213906
2.68324375 1.37622678 0.15622282
2.90649605 0.86791098 -0.15713869
2.69140124 1.37924576 -0.05218269
2.90852952 0.86686504 -0.36782649
2.69035125 1.37928534 -0.26094562
2.88575268 0.85735804 0.47073954
2.66829729 1.36964822 0.57572573
2.89606833 0.85985929 0.26124933
2.68380475 1.37353599 0.36539254
2.90656924 0.86296344 0.05231358
2.68318057 1.37087107 0.15609197
2.91279411 0.86425418 -0.15740038
2.69380426 1.37454629 -0.05218269
2.90988755 0.86229533 -0.36782649
2.69718719 1.37685907 -0.26138052
2.89257336 0.84292591 0.47113016
2.67738271 1.35723841 0.57620233
2.90277481 0.84588522 0.26146722
2.69095969 1.35946488 0.36539254
2.90369916 0.84614760 0.05218269
2.69032192 1.35680318 0.15609197
2.91488194 0.84829497 -0.15726954
2.70072699 1.36089420 -0.05218269
2.91912889 0.84842944 -0.36843497
2.70435929 1.36271787 -0.26138052
2.88929558 0.83650571 0.47034886
2.67998338 1.35209572 0.57620233
2.90424681 0.84081757 0.26146722
2.68446803 1.35029233 0.36417559
2.91252303 0.84265089 0.05231358
2.69045663 1.35098195 0.15596114
2.91395926 0.84251434 -0.15713869
2.70309830 1.35617852 -0.05218269
2.91822076 0.84264642 -0.36813071
2.70673370 1.35799575 -0.26138052
2.89377928 0.82086098 0.47034886
2.68483114 1.33694744 0.57572573
2.91114998 0.82577002 0.26168510
2.69173431 1.33574831 0.36417559
2.91930056 0.82807010 0.05235722
2.69996190 1.33751714 0.15609197
2.93274498 0.83132154 -0.15792374
2.70815778 1.34042132 -0.05213906
2.92990160 0.82886702 -0.36904344
2.71380711 1.34380484 -0.26138052
2.90457320 0.81898886 0.47191149
2.68276620 1.33007240 0.57477254
2.91498423 0.82136178 0.26190299
2.70049763 1.33482730 0.36508831
2.92314744 0.82365000 0.05240085
2.69982243 1.33216619 0.15596114
2.92698073 0.82417619 -0.15753123
2.70601201 1.33347619 -0.05205180
2.93358922 0.82493389 -0.36934766
2.70945168 1.33575237 -0.26072815
2.90168023 0.80180091 0.47073954
2.68946385 1.31647682 0.57477254
2.91430235 0.80527371 0.26146722
2.70076418 1.31739557 0.36417559
2.93209839 0.81017262 0.05248811
2.70676064 1.31801188 0.15596114
2.93125606 0.80883932 -0.15753123
2.71272659 1.31976271 -0.05205180
2.93786836 0.80956244 -0.36934766
2.72088456 1.32373333 -0.26116306
2.91021991 0.79869127 0.47191149
2.69198632 1.31131113 0.57477254
2.91570330 0.80018604 0.26146722
2.70305920 1.31267977 0.36417559
2.93123770 0.80388230 0.05244448
2.71579146 1.31656289 0.15635367
2.92784691 0.80240536 -0.15726954
2.71727395 1.31611907 -0.05209543
2.93688321 0.80378020 -0.36904344
2.72095108 1.31789351 -0.26094562
2.90972853 0.78165567 0.47113016
2.70102572 1.29826438 0.57524914
2.92239571 0.78504348 0.26168510
2.69894075 1.29265916 0.36265439
2.93540645 0.78852344 0.05244448
2.71162128 1.29644835 0.15569946
2.93683124 0.78835577 -0.15753123
2.72210121 1.30031717 -0.05205180
2.94358635 0.78851902 -0.36934766
2.72332311 1.30147398 -0.26051068
2.91811109 0.77899021 0.47230217
2.70328712 1.29354835 0.57524914
2.93098164 0.78186303 0.26233879
2.70768166 1.29163337 0.36356711
2.93677807 0.78339899 0.05244448
2.71590686 1.29326427 0.15583031
2.94302797 0.78451180 -0.15779290
2.72662210 1.29664099 -0.05209543
2.94482112 0.78389424 -0.36934766
2.72334290 1.29564559 -0.26029325
2.92453909 0.76432317 0.47269279
2.70758271 1.27879775 0.57477254
2.93249154 0.76638973 0.26212090
2.71665096 1.27849853 0.36387137
2.94070554 0.76852465 0.05244448
2.72264099 1.27902615 0.15583031
2.94696116 0.76960582 -0.15779290
2.72862816 1.28069305 -0.05200817
2.95368886 0.76971304 -0.36995617
2.73662448 1.28503096 -0.26094562
2.93304086 0.76107389 0.47386476
2.70981050 1.27407014 0.57477254
2.94346905 0.76376647 0.26299244
2.71663284 1.27269888 0.36356711
2.94204259 0.76339102 0.05244448
2.72260928 1.27321124 0.15569946
2.95555115 0.76633662 -0.15818542
2.73085904 1.27592885 -0.05200817
2.95262480 0.76393658 -0.36965191
2.73660827 1.27919459 -0.26072815
2.93219781 0.74449384 0.47308344
2.71644425 1.25986421 0.57477254
2.94259906 0.74712139 0.26255667
2.71875739 1.25636840 0.36295861
2.94842243 0.74858969 0.05248811
2.72923851 1.25893819 0.15569946
2.95239282 0.74849832 -0.15779290
2.74203920 1.26371169 -0.05209543
2.95658422 0.74846631 -0.36965191
2.73896885 1.26227772 -0.26029325
2.94067693 0.74118090 0.47425541
2.71440458 1.25258315 0.57381934
2.95114470 0.74380577 0.26321036
2.72995710 1.25578320 0.36417559
2.95470285 0.74414569 0.05257537
2.74050045 1.25835371 0.15622282
2.96095920 0.74516773 -0.15818542
2.74424076 1.25892401 -0.05209543
2.96992087 0.74632126 -0.37117311
2.74569201 1.25957930 -0.26072815
2.93984842 0.72408152 0.47347412
2.72092581 1.23835361 0.57381934
2.95270705 0.72723365 0.26299244
2.72993660 1.23790979 0.36326286
2.96341372 0.72985721 0.05266263
2.73817730 1.23937619 0.15569946
2.96482038 0.72965401 -0.15818542
2.74646020 1.24199128 -0.05200817
2.97150517 0.72965139 -0.37086886
2.75451708 1.24621570 -0.26094562
2.95057797 0.72180372 0.47503674
2.72978449 1.23665130 0.57524914
2.96123052 0.72384864 0.26364613
2.72961783 1.23259532 0.36295861
2.96711135 0.72527593 0.05270626
2.74012065 1.23507357 0.15569946
2.96851492 0.72506911 -0.15831625
2.75545692 1.24028420 -0.05213906
2.97023654 0.72439635 -0.37056464
2.74987960 1.23832798 -0.26029325
2.94711065 0.70462674 0.47386476
2.72705293 1.21879947 0.57334274
2.96727920 0.70942891 0.26386401
2.73829937 1.21929920 0.36326286
2.96831274 0.70966911 0.05266263
2.75794935 1.22579658 0.15635367
2.97712803 0.71067244 -0.15857795
2.75941586 1.22530377 -0.05209543
2.98123145 0.71055585 -0.37147737
2.75860047 1.22492695 -0.26051068
2.95314193 0.70061892 0.47464606
2.73835135 1.21756375 0.57524914
2.96608901 0.70367557 0.26364613
2.74042320 1.21451807 0.36326286
2.97453499 0.70511919 0.05274990
2.75552106 1.21895432 0.15609197
2.97350454 0.70432752 -0.15831625
2.76383543 1.22149980 -0.05213906
2.97763658 0.70421237 -0.37086886
2.76073432 1.22011042 -0.26051068
2.96410728 0.68629706 0.47581801
2.74468899 1.20320916 0.57524914
2.97955966 0.68985826 0.26451766
2.74922681 1.20066988 0.36356711
2.97331524 0.68841034 0.05266263
2.75978899 1.20302665 0.15596114
2.97715139 0.68874866 -0.15831625
2.76353335 1.20352376 -0.05200817
2.98140311 0.68809152 -0.37086886
2.76708460 1.20563853 -0.26051068
2.96036816 0.68053693 0.47503674
2.74678493 1.19841695 0.57524914
2.97833157 0.68410099 0.26429981
2.74883556 1.19535685 0.36326286
2.97451210 0.68321991 0.05266263
2.75938678 1.19769263 0.15583031
2.99295092 0.68689311 -0.15910131
2.76792145 1.19969606 -0.05205180
2.99457574 0.68617105 -0.37239009
2.76918483 1.20080721 -0.26051068
2.97111964 0.66664439 0.47620869
2.75281525 1.18449891 0.57524914
2.97932553 0.66847384 0.26408190
2.75961494 1.18290997 0.36387137
2.98037124 0.66870153 0.05270626
2.76561999 1.18322814 0.15583031
2.98907971 0.67010188 -0.15870878
2.77395797 1.18567097 -0.05205180
2.99812722 0.67048222 -0.37239009
2.77293873 1.18579316 -0.26029325
2.74811506 1.17678392 0.57381934
2.98778176 0.66489124 0.26473558
2.76395631 1.17906880 0.36417559
2.99129534 0.66566455 0.05288079
2.77227163 1.18036234 0.15609197
2.99999475 0.66704541 -0.15923214
2.76912713 1.17788208 -0.05192091
2.98960161 0.66310519 -0.37117311
2.77271414 1.17997301 -0.26007581
2.75896120 1.16381276 0.57477254
2.77029514 1.16409719 0.36417559
2.77631688 1.16437662 0.15596114
3.00844002 0.65185845 -0.15949382
2.77776361 1.16385186 -0.05196454
3.01012564 0.65057909 -0.37330279
2.78135300 1.16592026 -0.26029325
2.76098824 1.15899575 0.57477254
2.77232265 1.15926027 0.36417559
2.77373981 1.15759921 0.15569946
2.78670764 1.16189826 -0.05209543
2.78797793 1.16298866 -0.26072815
2.76475263 1.14358187 0.57429600
2.77376890 1.14283097 0.36356711
2.78437805 1.14496613 0.15596114
2.79044223 1.14633787 -0.05205180
2.79172707 1.14742470 -0.26051068
2.77128029 1.14062977 0.57524914
2.77785492 1.13941777 0.36387137
2.78386426 1.13964164 0.15583031
2.79012680 1.14051664 -0.05200817
2.78911829 1.14065802 -0.26007581
2.77019978 1.12381029 0.57381934
2.78378272 1.12485743 0.36387137
2.78979301 1.12504983 0.15583031
2.79586363 1.12638009 -0.05200817
2.79966950 1.12790680 -0.26051068
2.77007794 1.11756814 0.57334274
2.78113985 1.11813879 0.36326286
2.79175234 1.12017906 0.15583031
2.79782534 1.12149870 -0.05200817
2.80163383 1.12301898 -0.26051068
2.78500843 1.10668790 0.57524914
2.78945470 1.10399175 0.36356711
2.80473375 1.10781991 0.15622282
2.80849934 1.10818648 -0.05209543
2.80516028 1.10741615 -0.26029325
2.78237414 1.10001385 0.57429600
2.79118586 1.09960866 0.36356711
2.79950476 1.10066187 0.15583031
2.80810380 1.10236597 -0.05205180
2.80708861 1.10251856 -0.26029325
2.79476237 1.08859968 0.57572573
2.79921699 1.08588016 0.36387137
2.81220937 1.08870316 0.15622282
2.81131768 1.08723390 -0.05200817
2.81282306 1.08780563 -0.26029325
2.79455996 1.08234227 0.57524914
2.80110788 1.08099282 0.36387137
2.81177711 1.08289242 0.15609197
2.81087923 1.08142447 -0.05196454
2.81471729 1.08289468 -0.26029325
2.80248046 1.06857312 0.57572573
2.80691552 1.06582177 0.36387137
2.81759477 1.06766355 0.15609197
2.82369852 1.06886566 -0.05209543
2.82034898 1.06814206 -0.26029325
2.79975462 1.06193256 0.57477254
2.80626655 1.06053054 0.36356711
2.81459928 1.06146741 0.15583031
2.81854606 1.06128275 -0.05196454
2.81987953 1.06233656 -0.26007581
2.80739141 1.04861033 0.57524914
2.80945659 1.04495394 0.36326286
2.82011867 1.04671574 0.15583031
2.83325100 1.05049336 -0.05213906
2.83222127 1.05065954 -0.26072815
2.80921721 1.04370892 0.57524914
2.81592798 1.04177797 0.36387137
2.82194114 1.04179192 0.15583031
2.83273602 1.04467833 -0.05209543
2.83405089 1.04571474 -0.26072815
2.81464338 1.02898574 0.57524914
2.81668305 1.02531493 0.36326286
2.83673835 1.03042591 0.15635367
2.84521246 1.03240037 -0.05222632
2.83966708 1.03036594 -0.26072815
2.81891918 1.02442193 0.57572573
2.82546401 1.02294207 0.36417559
2.82914543 1.02206600 0.15583031
2.84701014 1.02743304 -0.05222632
2.84146142 1.02540815 -0.26072815
2.82424450 1.00964808 0.57572573
2.84030342 1.01098263 0.36539254
2.84168744 1.00926113 0.15622282
2.84075499 1.00781751 -0.05200817
2.84913731 1.01135302 -0.26094562
2.82831359 1.00554299 0.57620233
2.84188771 1.00651991 0.36539254
2.84562230 1.00563169 0.15635367
2.85193324 1.00619888 -0.05218269
2.85324502 1.00721121 -0.26116306
2.83105135 0.99040079 0.57572573
2.84243464 0.98998654 0.36478406
2.84849167 0.98989511 0.15622282
2.85698962 0.99175107 -0.05218269
2.86083126 0.99307829 -0.26138052
2.83526468 0.98577332 0.57620233
2.84650183 0.98583972 0.36508831
2.84549809 0.98328418 0.15596114
2.85399294 0.98512483 -0.05209543
2.86256003 0.98808366 -0.26138052
2.84038711 0.97091448 0.57620233
2.85648966 0.97203022 0.36569679
2.85550237 0.96948659 0.15622282
2.86164737 0.97047532 -0.05213906
2.87005210 0.97388583 -0.26159796
2.83975506 0.96516228 0.57572573
2.85801339 0.96754205 0.36569679
2.85938573 0.96580261 0.15635367
2.86807156 0.96708381 -0.05222632
2.86938858 0.96807534 -0.26138052
2.84460378 0.95077670 0.57572573
2.85598016 0.95020348 0.36478406
2.86913967 0.95239782 0.15661533
2.87530088 0.95334512 -0.05226995
2.87661433 0.95432752 -0.26159796
2.85556960 0.94892043 0.57763213
2.85998893 0.94600022 0.36508831
2.87079763 0.94738877 0.15661533
2.87696052 0.94832534 -0.05226995
2.87591124 0.94852179 -0.26138052
2.85833001 0.93269157 0.57715553
2.86270618 0.92974234 0.36478406
2.88062930 0.93338889 0.15687703
2.88680339 0.93429220 -0.05235722
2.88336968 0.93371868 -0.26159796
2.85295391 0.92541891 0.57572573
2.87124348 0.92754364 0.36569679
2.87021661 0.92501569 0.15622282
2.87178087 0.92386854 -0.05205180
2.88025570 0.92715132 -0.26116306
2.86461258 0.91321409 0.57715553
2.87606096 0.91249716 0.36569679
2.87739968 0.91073167 0.15635367
2.88118482 0.91083550 -0.05213906
2.88965845 0.91407073 -0.26159796
2.86620188 0.90821296 0.57715553
2.88001442 0.90822613 0.36600104
2.87660432 0.90495545 0.15622282
2.88277006 0.90580553 -0.05213906
2.89124942 0.90902591 -0.26159796
2.87091804 0.89319319 0.57715553
2.88709998 0.89387149 0.36630529
2.88845611 0.89210224 0.15661533
2.89463568 0.89292026 -0.05226995
2.90326166 0.89558268 -0.26225033
2.87731481 0.88913620 0.57810873
2.88865566 0.88883120 0.36630529
2.88523769 0.88558733 0.15635367
2.89618969 0.88786674 -0.05226995
2.89768028 0.88831347 -0.26159796
2.87958336 0.87334251 0.57763213
2.88867331 0.87174809 0.36569679
2.89715552 0.87213349 0.15674618
2.90573645 0.87363058 -0.05235722
2.90229177 0.87312919 -0.26159796
2.88580060 0.86973900 0.57858527
2.89241457 0.86792624 0.36600104
2.90569377 0.86974007 0.15713869
2.90965056 0.86927682 -0.05240085
2.90142560 0.86734539 -0.26138052
2.89251781 0.85582149 0.57906187
2.89691925 0.85276973 0.36600104
2.90541911 0.85310018 0.15687703
2.91401291 0.85453868 -0.05240085
2.91070509 0.85355067 -0.26181543
2.88709497 0.84818059 0.57763213
2.90554500 0.84981292 0.36691374
2.90929914 0.84873068 0.15700787
2.91789913 0.85015440 -0.05244448
2.91458082 0.84916955 -0.26203290
2.89856791 0.83510131 0.57906187
2.91248465 0.83476740 0.36721799
2.91864753 0.83435726 0.15726954
2.91284609 0.83159530 -0.05226995
2.92377424 0.83527267 -0.26246780
2.90002108 0.83004105 0.57906187
2.90902185 0.82882434 0.36660951
2.91755414 0.82908553 0.15713869
2.92390776 0.82925272 -0.05244448
2.92283249 0.82948488 -0.26225033
2.90418530 0.81535220 0.57906187
2.92048836 0.81559455 0.36752224
2.92425919 0.81447142 0.15726954
2.93047476 0.81511635 -0.05248811
2.92953420 0.81484067 -0.26246780
2.90574503 0.80977505 0.57906187
2.92190742 0.81049615 0.36752224
2.92808127 0.81003565 0.15740038
2.93911791 0.81200826 -0.05261900
2.92855191 0.80905962 -0.26225033
2.91231179 0.79519963 0.57953846
2.92146230 0.79336739 0.36691374
2.93723869 0.79549402 0.15766206
2.94588065 0.79675055 -0.05266263
2.93274808 0.79371470 -0.26225033
2.91369557 0.79011548 0.57953846
2.93242168 0.79086632 0.36813071
2.93380284 0.78906214 0.15740038
2.94002724 0.78965181 -0.05253174
2.93653345 0.78924495 -0.26246780
2.92253423 0.77611572 0.58049166
2.93172622 0.77422702 0.36752224
2.94030762 0.77432954 0.15753123
2.94653821 0.77488649 -0.05257537
2.94062567 0.77385855 -0.26246780
2.92151237 0.77038437 0.58001512
2.93773723 0.77088779 0.36813071
2.94634867 0.77098119 0.15779290
2.95513868 0.77164805 -0.05270626
2.94919777 0.77062482 -0.26312014
2.93012452 0.75682217 0.58096826
2.94413567 0.75611627 0.36843497
2.94792771 0.75492066 0.15766206
2.95900655 0.75668091 -0.05270626
2.95078039 0.75455171 -0.26290271
2.92444301 0.74935693 0.57953846
2.94304729 0.75035995 0.36813071
2.95407820 0.75101197 0.15792374
2.96274447 0.75213391 -0.05274990
2.95933199 0.75124973 -0.26355505
2.93308544 0.73523510 0.58049166
2.94706392 0.73442560 0.36813071
2.96052003 0.73562366 0.15805459
2.96677065 0.73609304 -0.05274990
2.96564126 0.73634827 -0.26377252
2.93436432 0.73011470 0.58049166
2.95062184 0.73039538 0.36843497
2.95924902 0.73037052 0.15792374
2.96319842 0.72971129 -0.05266263
2.96208739 0.72997200 -0.26333761
2.94040608 0.71583748 0.58096826
2.95681667 0.71552324 0.36873919
2.96303272 0.71486598 0.15792374
2.96928310 0.71529293 -0.05270626
2.96816444 0.71555758 -0.26355505
2.94403529 0.71128434 0.58144486
2.96047306 0.71094471 0.36904344
2.96913004 0.71086329 0.15818542
2.97295713 0.71069425 -0.05274990
2.97183013 0.71095914 -0.26377252
2.95261598 0.69647944 0.58239806
2.96186113 0.69434661 0.36873919
2.97050238 0.69421661 0.15805459
2.97675872 0.69459867 -0.05274990
2.98048186 0.69600958 -0.26420742
2.95860457 0.69245094 0.58335125
2.96790028 0.69030768 0.36934766
2.97657180 0.69016618 0.15831625
2.97796679 0.68940222 -0.05274990
2.97926664 0.69024080 -0.26398996
2.96458149 0.67750067 0.58382785
2.96663642 0.67365217 0.36873919
2.98014474 0.67457145 0.15831625
2.98397279 0.67435485 -0.05279353
2.98526835 0.67518514 -0.26420742
2.96097422 0.67123306 0.58287466
2.97011065 0.66954064 0.36904344
2.98607111 0.67099142 0.15857795
2.99002171 0.67024660 -0.05288079
2.99130082 0.67107141 -0.26464233
2.99441886 0.65642369 0.15883961
2.99581695 0.65564233 -0.05292442
2.99963760 0.65647203 -0.26507723
3.04214120 0.66027683 -0.26877397
