3.00195527 0.38783556 0.80064750
3.02141285 0.38560349 0.58478099
3.06252003 0.38660404 0.37421554
3.09366512 0.38840660 0.16158725
3.11489081 0.39000461 -0.05418972
3.00023270 0.38228667 0.80000138
3.01964688 0.38001946 0.58430439
3.05573773 0.38086122 0.37330279
3.08931708 0.38292515 0.16132557
3.11804676 0.38487732 -0.05423335
3.00212908 0.36709628 0.80000138
3.02153158 0.36473083 0.58430439
3.05769014 0.36485630 0.37330279
3.09623718 0.36733988 0.16158725
3.12243652 0.36938784 -0.05427698
3.00036788 0.36156335 0.79935515
3.03190970 0.36063096 0.58621085
3.06078625 0.35981244 0.37360704
3.08447742 0.36046815 0.16093306
3.12307644 0.36393762 -0.05427698
3.00221968 0.34584859 0.79935515
3.02888036 0.34418947 0.58525759
3.05769730 0.34322038 0.37299854
3.09128404 0.34487393 0.16119474
3.12493944 0.34758031 -0.05427698
3.00281906 0.34060821 0.79935515
3.02947664 0.33890256 0.58525759
3.05582571 0.33760703 0.37269431
3.08443761 0.33864975 0.16080222
3.12057257 0.34157458 -0.05418972
3.00696206 0.32514426 0.80000138
3.02632952 0.32250813 0.58430439
3.06001878 0.32186544 0.37299854
3.09113359 0.32302132 0.16106389
3.12728953 0.32575580 -0.05427698
3.00992560 0.32015473 0.80064750
3.02444768 0.31696621 0.58382785
3.06057596 0.31652421 0.37299854
3.08424330 0.31684944 0.16067138
3.12288141 0.31978074 -0.05418972
3.00915861 0.30414394 0.80000138
3.03094912 0.30161938 0.58478099
3.06712985 0.30098686 0.37360704
3.09331322 0.30143347 0.16106389
3.12202525 0.30317980 -0.05414609
3.00487876 0.29840669 0.79870892
3.02663827 0.29531580 0.58382785
3.06765056 0.29563326 0.37360704
3.08638024 0.29530978 0.16067138
3.12006164 0.29748946 -0.05410246
3.00885367 0.28237385 0.79935515
3.03058648 0.27969360 0.58430439
3.05932164 0.27811804 0.37239009
3.09787726 0.27951863 0.16119474
3.12411475 0.28083146 -0.05414609
3.00934196 0.27712199 0.79935515
3.02862620 0.27417880 0.58382785
3.07211089 0.27443448 0.37391129
3.08836651 0.27375576 0.16067138
3.11464143 0.27448615 -0.05397156
3.00589466 0.26146084 0.79806268
3.03730989 0.25948396 0.58525759
3.06856084 0.25792217 0.37330279
3.09473300 0.25800359 0.16093306
3.12844467 0.25977042 -0.05418972
3.01115823 0.25663176 0.79935515
3.03535700 0.25344434 0.58478099
3.07395196 0.25298056 0.37391129
3.09766674 0.25280860 0.16106389
3.12640214 0.25410375 -0.05414609
3.01009583 0.24014038 0.79870892
3.02930331 0.23696251 0.58335125
3.07774973 0.23653911 0.37421554
3.09401107 0.23565850 0.16080222
3.12274671 0.23679937 -0.05405882
3.01291776 0.23507799 0.79935515
3.03705215 0.23224753 0.58478099
3.08059120 0.23189421 0.37451977
3.09935594 0.23117684 0.16106389
3.12814045 0.23172538 -0.05414609
3.00925231 0.21946651 0.79806268
3.03084612 0.21633738 0.58335125
3.07186294 0.21505325 0.37330279
3.09305286 0.21441659 0.16067138
3.11929965 0.21518685 -0.05397156
3.00722218 0.21403886 0.79741657
3.03856277 0.21156977 0.58478099
3.06975818 0.20951885 0.37299854
3.10089421 0.20953380 0.16106389
3.12715149 0.21025628 -0.05410246
3.00592637 0.19760299 0.79677033
3.03721428 0.19496563 0.58430439
3.07332325 0.19306614 0.37330279
3.09450793 0.19227788 0.16067138
3.12075949 0.19286031 -0.05397156
3.01108670 0.19267227 0.79806268
3.03999901 0.18982102 0.58478099
3.07362270 0.18823835 0.37330279
3.09231424 0.18726219 0.16054054
3.12857604 0.18787365 -0.05410246
3.01443362 0.17757513 0.79870892
3.03602123 0.17414334 0.58382785
3.07456613 0.17214237 0.37330279
3.09574509 0.17120992 0.16067138
3.12449551 0.17175449 -0.05401520
3.00991750 0.17203061 0.79741657
3.03632069 0.16884421 0.58382785
3.07486176 0.16677599 0.37330279
3.09354615 0.16566938 0.16054054
3.12479067 0.16630097 -0.05401520
3.00836515 0.15613951 0.79677033
3.04206443 0.15319814 0.58478099
3.07569289 0.15067384 0.37330279
3.09935856 0.14971769 0.16080222
3.13061166 0.15018421 -0.05410246
3.01345682 0.15113810 0.79806268
3.03745103 0.14711262 0.58382785
3.07595134 0.14530550 0.37330279
3.09462762 0.14406849 0.16054054
3.12837195 0.14460097 -0.05405882
3.01905537 0.13505492 0.79935515
3.04063106 0.13131623 0.58430439
3.07917142 0.12876834 0.37360704
3.09536171 0.12732291 0.16054054
3.12910843 0.12767282 -0.05405882
3.00963593 0.12935568 0.79677033
3.03840423 0.12590380 0.58382785
3.07689047 0.12382795 0.37330279
3.09805226 0.12256294 0.16067138
3.13182449 0.12231250 -0.05410246
3.01025200 0.11412095 0.79677033
3.04390693 0.11070935 0.58478099
3.07501698 0.10762528 0.37299854
3.09865165 0.10633998 0.16067138
3.13490152 0.10654795 -0.05414609
3.01044655 0.10886689 0.79677033
3.03920889 0.10468885 0.58382785
3.07768011 0.10234436 0.37330279
3.09883237 0.10093165 0.16067138
3.12758803 0.10082381 -0.05401520
3.01099157 0.09257731 0.79677033
3.04216814 0.08884959 0.58430439
3.07818866 0.08569109 0.37330279
3.09933329 0.08416396 0.16067138
3.13308501 0.08404187 -0.05410246
3.01839042 0.08754324 0.79870892
3.03250623 0.08325550 0.58239806
3.08080006 0.08092463 0.37360704
3.09696603 0.07922789 0.16054054
3.13072801 0.07850717 -0.05405882
3.01155186 0.07208015 0.79677033
3.04270244 0.06814031 0.58430439
3.07125854 0.06456912 0.37239009
3.10732222 0.06322906 0.16106389
3.12858629 0.06260654 -0.05401520
3.01650190 0.06693853 0.79806268
3.04282761 0.06229861 0.58430439
3.07880926 0.05936326 0.37330279
3.10742807 0.05780567 0.16106389
3.13118982 0.05719533 -0.05405882
3.01440549 0.05057253 0.79741657
3.03820467 0.04628340 0.58335125
3.07908535 0.04270452 0.37330279
3.10519910 0.04095551 0.16093306
3.13645244 0.04032476 -0.05414609
3.01690388 0.04535136 0.79806268
3.04564238 0.04109116 0.58478099
3.08411098 0.03793628 0.37391129
3.10026693 0.03601246 0.16067138
3.12901974 0.03475633 -0.05401520
3.01226473 0.03002528 0.79677033
3.04581141 0.02567532 0.58478099
3.07930446 0.02174502 0.37330279
3.10290933 0.01979870 0.16080222
3.13415456 0.01895607 -0.05410246
3.01714253 0.02481506 0.79806268
3.04830575 0.02037947 0.58525759
3.07685637 0.01635370 0.37299854
3.10793233 0.01441357 0.16106389
3.13418293 0.01348592 -0.05410246
3.02206111 0.00903899 0.79935515
3.04837060 0.00441838 0.58525759
3.07441854 0.00023927 0.37269431
3.10546851 -0.00186183 0.16093306
3.13171077 -0.00292605 -0.05405882
3.01724243 0.00375100 0.79806268
3.05082774 -0.00143151 0.58573419
3.07441449 -0.00512660 0.37269431
3.10296392 -0.00727971 0.16080222
3.13420057 -0.00839496 -0.05410246
3.01721835 -0.01257383 0.79806268
3.04586983 -0.01738495 0.58478099
3.07682276 -0.02177449 0.37299854
3.10537577 -0.02408386 0.16093306
3.13160944 -0.02533583 -0.05405882
3.01960683 -0.01785038 0.79870892
3.04092693 -0.02267185 0.58382785
3.07678485 -0.02660752 0.37299854
3.10533404 -0.02896174 0.16093306
3.13156056 -0.03080148 -0.05405882
3.02672243 -0.03320197 0.80064750
3.04813528 -0.03814396 0.58525759
3.07412219 -0.04268634 0.37269431
3.10513997 -0.04522076 0.16093306
3.13886309 -0.04675205 -0.05418972
3.02665997 -0.03848455 0.80064750
3.04315615 -0.04340136 0.58430439
3.07404304 -0.04805163 0.37269431
3.10505629 -0.05064017 0.16093306
3.13377786 -0.05215442 -0.05410246
3.03123713 -0.05493980 0.80193996
3.05023813 -0.05999934 0.58573419
3.07621884 -0.06473152 0.37299854
3.10723281 -0.06748986 0.16106389
3.13344979 -0.06910894 -0.05410246
3.01906323 -0.06000894 0.79870892
3.04276752 -0.06517643 0.58430439
3.07611346 -0.06956355 0.37299854
3.11211467 -0.07247953 0.16132557
3.14082122 -0.07474525 -0.05423335
3.02113509 -0.07534543 0.79935515
3.05466557 -0.08088259 0.58668739
3.08066821 -0.08579979 0.37360704
3.11169267 -0.08877346 0.16132557
3.14040279 -0.09064134 -0.05423335
3.02341366 -0.08067889 0.80000138
3.05205154 -0.08668102 0.58621085
3.08299446 -0.09124617 0.37391129
3.10903740 -0.09413236 0.16119474
3.13774157 -0.09604940 -0.05418972
3.02534628 -0.09710961 0.80064750
3.04664993 -0.10250265 0.58525759
3.07749510 -0.10775907 0.37330279
3.10848236 -0.11095241 0.16119474
3.13717580 -0.11302473 -0.05418972
3.02758622 -0.10246766 0.80129373
3.04891944 -0.10790300 0.58573419
3.08228207 -0.11276712 0.37391129
3.11079931 -0.11592438 0.16132557
3.13947177 -0.11859067 -0.05423335
3.02702880 -0.11779027 0.80129373
3.05569100 -0.12361998 0.58716398
3.07916999 -0.12880428 0.37360704
3.11264467 -0.13231321 0.16145642
3.14382625 -0.13468611 -0.05432061
3.02923179 -0.12316765 0.80193996
3.05301833 -0.12885320 0.58668739
3.07646132 -0.13407390 0.37330279
3.12986875 -0.13849264 0.16237231
3.14108896 -0.14006519 -0.05427698
3.08067441 -0.15041496 0.37391129
3.00902128 0.66852665 0.70300251
3.00057507 0.65019059 0.70019281
3.03362393 0.65841985 0.48558441
3.00635624 0.64649773 0.70131665
3.03959727 0.65416020 0.48636574
3.07027268 0.66073585 0.27170801
3.00504112 0.62922686 0.70019281
3.03089547 0.63570911 0.48441246
3.07369018 0.64465100 0.27170801
3.08973265 0.64799911 0.05449514
3.00613475 0.62398118 0.70019281
3.03683615 0.63142055 0.48519379
3.06505609 0.63726354 0.27083647
3.09097099 0.64206600 0.05449514
3.11425042 0.64632004 -0.16485825
3.00707841 0.60722673 0.69963080
3.04020786 0.61498058 0.48519379
3.07334185 0.62165529 0.27127224
3.09183979 0.62537891 0.05445150
3.01280594 0.60345620 0.70075470
3.03390622 0.60875142 0.48402178
3.06709552 0.61482638 0.27061859
3.09047556 0.61949188 0.05440787
3.12113500 0.62505174 -0.16498910
3.00635910 0.58581543 0.69850689
3.03220439 0.59191447 0.48324049
3.06283402 0.59786761 0.26996490
3.09847879 0.60479647 0.05449514
3.11456180 0.60679722 -0.16446574
3.01216149 0.58148795 0.69963080
3.04050660 0.58802348 0.48441246
3.06387258 0.59252107 0.26996490
3.09717941 0.59837401 0.05445150
3.12051940 0.60230368 -0.16472742
3.01526356 0.56518215 0.69963080
3.03393507 0.56974721 0.48284984
3.06703377 0.57593530 0.26996490
3.09781313 0.58168930 0.05440787
3.12608409 0.58641529 -0.16485825
3.01375222 0.56000149 0.69906884
3.03968239 0.56588173 0.48363116
3.07293224 0.57148921 0.27040070
3.09636593 0.57582617 0.05436425
3.11237383 0.57823122 -0.16407321
3.01424551 0.54378301 0.69850689
3.04017329 0.54952055 0.48324049
3.06598115 0.55416262 0.26952913
3.09432054 0.55926061 0.05427698
3.12263203 0.56379700 -0.16446574
3.01029944 0.53819317 0.69738305
3.03626561 0.54334676 0.48245916
3.07429886 0.55012214 0.27018279
3.10021377 0.55473673 0.05436425
3.12606955 0.55878395 -0.16459657
3.01316714 0.52189809 0.69738305
3.04393554 0.52828294 0.48324049
3.07713723 0.53401768 0.27018279
3.09568644 0.53721881 0.05423335
3.12658668 0.54143769 -0.16446574
3.01647472 0.51704830 0.69794500
3.04485273 0.52296948 0.48324049
3.07315516 0.52780616 0.26974702
3.09671211 0.53127456 0.05423335
3.12014389 0.53471929 -0.16407321
3.00961447 0.49913204 0.69569719
3.04032969 0.50527781 0.48206854
3.07350874 0.51076436 0.26952913
3.09451938 0.51423651 0.05414609
3.12043786 0.51796770 -0.16394238
3.01520276 0.49519047 0.69682103
3.04355621 0.50090086 0.48245916
3.06702256 0.50419194 0.26887548
3.09294558 0.50843084 0.05410246
3.11640930 0.51171464 -0.16368069
3.01053596 0.47825426 0.69513524
3.03638172 0.48341122 0.48089653
3.06953502 0.48866197 0.26887548
3.10288548 0.49394396 0.05423335
3.12644362 0.49656060 -0.16407321
3.00895929 0.47262263 0.69457322
3.04209995 0.47887594 0.48167786
3.07776451 0.48446104 0.26952913
3.09888911 0.48721248 0.05414609
3.11990571 0.48994568 -0.16368069
3.01147246 0.45633572 0.69457322
3.04464626 0.46240968 0.48167786
3.07787776 0.46742928 0.26931125
3.10634065 0.47172770 0.05423335
3.12736583 0.47434911 -0.16394238
3.00254798 0.45016617 0.69232541
3.03560066 0.45616496 0.48011526
3.06883669 0.46058422 0.26843968
3.09727049 0.46482754 0.05405882
3.12078118 0.46778432 -0.16354986
3.01450872 0.43582693 0.69457322
3.04527950 0.44132227 0.48128721
3.07359362 0.44540128 0.26865759
3.10700583 0.45021585 0.05418972
3.12071657 0.45108196 -0.16341902
3.00320601 0.42885086 0.69176346
3.03382206 0.43426478 0.47933394
3.06943512 0.43933344 0.26822180
3.09796572 0.44284117 0.05401520
3.12891436 0.44668862 -0.16381153
3.00306892 0.41226602 0.69120157
3.04102015 0.41851422 0.48011526
3.07176733 0.42271987 0.26822180
3.10519481 0.42729273 0.05410246
3.12626314 0.42962283 -0.16354986
3.01095486 0.40852615 0.69288743
3.03440452 0.41221341 0.47894326
3.07250023 0.41735801 0.26822180
3.10345864 0.42153758 0.05405882
3.12205982 0.42349762 -0.16328818
3.01305294 0.39275533 0.69288743
3.03645205 0.39684966 0.47894326
3.06963396 0.40115896 0.26778603
3.10803151 0.40614659 0.05410246
3.13159037 0.40865475 -0.16368069
3.01849842 0.38864103 0.69401127
3.04448795 0.39249206 0.48011526
3.07032943 0.39580083 0.26778603
3.10625601 0.40040338 0.05405882
3.12487006 0.40223682 -0.16328818
3.02297497 0.37260020 0.69457322
3.04159975 0.37594312 0.47933394
3.07483149 0.38002324 0.26800391
3.10334849 0.38352355 0.05397156
3.12197757 0.38526109 -0.16302650
3.01388288 0.36668065 0.69232541
3.04470253 0.37093106 0.47972459
3.07796264 0.37495571 0.26822180
3.10649443 0.37840733 0.05401520
3.12512350 0.38011158 -0.16315733
3.02308249 0.35120738 0.69401127
3.04660320 0.35498402 0.47972459
3.07740974 0.35854778 0.26800391
3.09601831 0.36069798 0.05379704
3.12459111 0.36345637 -0.16302650
3.01636958 0.34563100 0.69232541
3.04231095 0.34910622 0.47894326
3.08297968 0.35374090 0.26843968
3.09415960 0.35501048 0.05375341
3.13018155 0.35856760 -0.16328818
3.01577330 0.32904327 0.69176346
3.05146170 0.33397335 0.48011526
3.07488585 0.33651602 0.26756814
3.10343075 0.33961588 0.05388430
3.12462997 0.34081897 -0.16289566
3.02118778 0.32429612 0.69288743
3.03976369 0.32733288 0.47816196
3.07299232 0.33088374 0.26735023
3.10407686 0.33365709 0.05388430
3.13266706 0.33615950 -0.16328818
3.02047420 0.30769989 0.69232541
3.05131674 0.31187963 0.47972459
3.07473755 0.31425253 0.26735023
3.10578132 0.31739968 0.05388430
3.12693310 0.31899682 -0.16289566
3.02095389 0.30295497 0.69232541
3.04688859 0.30659491 0.47894326
3.08023763 0.30938032 0.26778603
3.10633063 0.31197858 0.05388430
3.13493776 0.31428134 -0.16328818
3.02249885 0.28713322 0.69232541
3.04107761 0.28993887 0.47777131
3.07928467 0.29355109 0.26756814
3.10786963 0.29625210 0.05388430
3.12908387 0.29715911 -0.16289566
3.01814437 0.28140837 0.69120157
3.04649663 0.28508776 0.47855264
3.07483268 0.28771532 0.26713234
3.10594392 0.29005399 0.05384067
3.12711191 0.29146719 -0.16276482
3.02204943 0.26528606 0.69176346
3.04799414 0.26860055 0.47855264
3.07882547 0.27129185 0.26735023
3.10742021 0.27378744 0.05384067
3.12859511 0.27508974 -0.16276482
3.02488923 0.26074633 0.69232541
3.04349208 0.26338977 0.47777131
3.07681274 0.26570511 0.26713234
3.10789323 0.26836354 0.05384067
3.12907028 0.26962888 -0.16276482
3.01892853 0.24431972 0.69063962
3.04482937 0.24745053 0.47777131
3.08060074 0.25032881 0.26735023
3.11170316 0.25283059 0.05388430
3.13043928 0.25324148 -0.16276482
3.01692200 0.23885962 0.69007760
3.04525638 0.24213593 0.47777131
3.07855034 0.24475594 0.26713234
3.10969090 0.24665998 0.05384067
3.13585448 0.24816835 -0.16302650
3.03031802 0.22342092 0.69288743
3.05144739 0.22601771 0.47855264
3.08479691 0.22846065 0.26756814
3.10844684 0.23019131 0.05379704
3.12964106 0.23119849 -0.16263397
3.02823520 0.21848686 0.69232541
3.05183721 0.22069162 0.47855264
3.08519101 0.22307634 0.26756814
3.11133718 0.22494443 0.05384067
3.13252997 0.22591396 -0.16276482
3.02694225 0.20193882 0.69176346
3.04802322 0.20438197 0.47777131
3.08383179 0.20675427 0.26735023
3.11247253 0.20865045 0.05384067
3.13117886 0.20934401 -0.16263397
3.02482486 0.19702710 0.69120157
3.04341221 0.19927433 0.47699001
3.08418775 0.20137167 0.26735023
3.11033750 0.20305657 0.05379704
3.13403106 0.20403945 -0.16276482
3.02581501 0.18118653 0.69120157
3.04934359 0.18363017 0.47777131
3.08268142 0.18561053 0.26713234
3.10633469 0.18701383 0.05370978
3.13505626 0.18762699 -0.16276482
3.02612662 0.17590521 0.69120157
3.04965949 0.17830779 0.47777131
3.08051443 0.18008618 0.26691446
3.11167908 0.18133754 0.05379704
3.13787174 0.18229827 -0.16289566
3.01973581 0.15914986 0.68951565
3.04564786 0.16154654 0.47699001
3.07895660 0.16328607 0.26669657
3.11258602 0.16504242 0.05379704
3.13878298 0.16586600 -0.16289566
3.02728081 0.15477476 0.69120157
3.04839134 0.15635557 0.47738063
3.08172441 0.15803805 0.26691446
3.10787630 0.15935674 0.05370978
3.13906765 0.16038755 -0.16289566
3.03048348 0.13903198 0.69176346
3.04667687 0.14081191 0.47699001
3.07999706 0.14232467 0.26669657
3.11363745 0.14385206 0.05379704
3.13487625 0.14372365 -0.16263397
3.03558874 0.13395424 0.69288743
3.05678582 0.13592678 0.47855264
3.08024049 0.13694884 0.26669657
3.11390781 0.13787404 0.05379704
3.13262820 0.13814360 -0.16250314
3.02409792 0.11706492 0.69007760
3.05500889 0.11929128 0.47816196
3.08840251 0.12056802 0.26735023
3.11208940 0.12147189 0.05375341
3.13580298 0.12183477 -0.16263397
3.02914691 0.11249222 0.69120157
3.05027723 0.11377814 0.47738063
3.08363056 0.11499505 0.26691446
3.11979032 0.11631487 0.05388430
3.14100099 0.11654367 -0.16289566
3.02727604 0.09602572 0.69063962
3.05329895 0.09788299 0.47777131
3.08667946 0.09892591 0.26713234
3.12035656 0.09997816 0.05388430
3.14156818 0.10009591 -0.16289566
3.02498841 0.09119853 0.69007760
3.00274110 0.66365218 0.81357169
3.05098104 0.09301309 0.47738063
3.02310014 0.66325337 0.59431291
3.08435822 0.09346463 0.26691446
3.12052631 0.09453196 0.05388430
3.14672899 0.09475994 -0.16315733
3.03516555 0.07559491 0.69232541
2.99426198 0.64588141 0.81034064
3.05142617 0.07703698 0.47738063
3.01442385 0.64535689 0.59192997
3.08728123 0.07791343 0.26713234
3.04843378 0.64827704 0.37786642
3.11346817 0.07855190 0.05375341
3.09170771 0.65530837 0.16381153
3.14468622 0.07822192 -0.16302650
3.03042221 0.07018776 0.69120157
2.99538445 0.64065444 0.81034064
3.05402446 0.07176758 0.47777131
3.01805687 0.64008111 0.59240651
3.08741260 0.07252499 0.26713234
3.04713321 0.64243996 0.37756217
3.11361337 0.07257432 0.05375341
3.07574964 0.64629281 0.16289566
3.14232206 0.07267710 -0.16289566
3.10169506 0.65065944 -0.05471329
3.02832174 0.05374898 0.69063962
2.99407983 0.62344670 0.80904818
3.05189943 0.05519965 0.47738063
3.01415920 0.62276936 0.59097672
3.09274006 0.05590643 0.26756814
3.04813457 0.62544167 0.37725791
3.12144828 0.05640143 0.05388430
3.07675624 0.62913829 0.16276482
3.14265966 0.05622301 -0.16289566
3.11496377 0.63588208 -0.05488782
3.03083849 0.04902988 0.69120157
2.98807025 0.61674470 0.80710959
3.05198240 0.05040567 0.47738063
3.01283836 0.61701173 0.59050012
3.08785248 0.05043026 0.26713234
3.04911327 0.62065297 0.37725791
3.11404395 0.05083561 0.05375341
3.08018684 0.62480444 0.16289566
3.14524913 0.05077673 -0.16302650
3.10627198 0.62844771 -0.05471329
3.03348970 0.03318493 0.69176346
2.98878670 0.60113305 0.80646336
3.06208062 0.03453006 0.47894326
3.02314067 0.60320604 0.59192997
3.09802985 0.03490671 0.26800391
3.04988790 0.60419357 0.37695366
3.12425923 0.03517988 0.05392793
3.08096719 0.60818112 0.16276482
3.14297557 0.03428191 -0.16289566
3.11431599 0.61369103 -0.05480055
3.03354263 0.02789045 0.69176346
2.98983097 0.59591568 0.80646336
3.05225968 0.02909776 0.47738063
3.01466560 0.59548408 0.59002358
3.09061480 0.02943308 0.26735023
3.04606938 0.59790659 0.37634522
3.12182164 0.02915986 0.05388430
3.07957458 0.60232008 0.16263397
3.14053369 0.02877499 -0.16276482
3.11293006 0.60777205 -0.05475692
3.03121328 0.01146942 0.69120157
2.99301147 0.57973051 0.80646336
3.06224966 0.01261758 0.47894326
3.01774216 0.57969129 0.59002358
3.09570980 0.01272828 0.26778603
3.05900717 0.58329052 0.37756217
3.12193155 0.01281371 0.05388430
3.08524060 0.58611876 0.16276482
3.15312433 0.01237227 -0.16341902
3.11371779 0.59045148 -0.05471329
3.03609920 0.00671564 0.69232541
2.99876118 0.57542330 0.80775583
3.06226563 0.00780739 0.47894326
3.02115917 0.57488579 0.59050012
3.09821773 0.00732958 0.26800391
3.05748200 0.57802022 0.37725791
3.11694980 0.00735617 0.05379704
3.08370447 0.58080608 0.16263397
3.15314126 0.00686901 -0.16341902
3.10737514 0.58362120 -0.05458239
3.03365684 -0.00917243 0.69176346
2.99451470 0.55889767 0.80581713
3.06473398 -0.00823482 0.47933394
3.01920533 0.55868667 0.58954698
3.10070562 -0.00836020 0.26822180
3.05558658 0.56109989 0.37664947
3.12444592 -0.00844502 0.05392793
3.08424854 0.56419921 0.16250314
3.15563226 -0.00909921 -0.16354986
3.11520624 0.56879103 -0.05466966
3.03607464 -0.01395043 0.69232541
2.99311161 0.55322790 0.80517101
3.06471491 -0.01358377 0.47933394
3.01776290 0.55297035 0.58907038
3.10068631 -0.01377194 0.26822180
3.05656123 0.55576599 0.37664947
3.12942576 -0.01392350 0.05401520
3.08277249 0.55836678 0.16237231
3.15311503 -0.01459374 -0.16341902
3.11373520 0.56290489 -0.05462603
3.03108335 -0.03032502 0.69120157
2.99596739 0.53754848 0.80517101
3.06213236 -0.02960489 0.47894326
3.01095414 0.53542858 0.58716398
3.09808135 -0.02998118 0.26800391
3.05698633 0.53931957 0.37634522
3.12930989 -0.03030887 0.05401520
3.08565378 0.54221773 0.16237231
3.16297555 -0.03175975 -0.16394238
3.11171699 0.54572314 -0.05453877
3.03833318 -0.03570577 0.69288743
2.99452376 0.53189266 0.80452478
3.06454515 -0.03497901 0.47933394
3.01922584 0.53093302 0.58859378
3.10051465 -0.03541830 0.26822180
3.06281042 0.53484428 0.37695366
3.12174773 -0.03622504 0.05388430
3.08413601 0.53640008 0.16224146
3.11020255 0.53986025 -0.05449514
3.04053140 -0.05218750 0.69344938
2.99497867 0.51526994 0.80387855
3.06678009 -0.05160230 0.47972459
3.01229000 0.51345307 0.58668739
3.10027766 -0.05219310 0.26822180
3.06076717 0.51743066 0.37634522
3.12151504 -0.05256989 0.05388430
3.08453178 0.51928747 0.16211061
3.10814881 0.52218920 -0.05440787
3.04288077 -0.05701067 0.69401127
2.99587321 0.51004195 0.80387855
3.06175733 -0.05632557 0.47894326
3.02043939 0.50943035 0.58811718
3.09520173 -0.05750839 0.26778603
3.06646967 0.51344895 0.37695366
3.12891626 -0.05816184 0.05401520
3.08042026 0.51361328 0.16184895
3.10905552 0.51676363 -0.05440787
3.03523493 -0.07276248 0.69232541
2.99603415 0.49447501 0.80323231
3.06142044 -0.07235605 0.47894326
3.02297950 0.49413604 0.58811718
3.09487104 -0.07317382 0.26778603
3.06176925 0.49618426 0.37604097
3.12858176 -0.07399791 0.05401520
3.07813859 0.49667460 0.16158725
3.10916424 0.50061983 -0.05436425
3.04484415 -0.07831662 0.69457322
2.99927568 0.48963800 0.80387855
3.06622648 -0.07782754 0.47972459
3.01907802 0.48754159 0.58716398
3.10220742 -0.07876955 0.26843968
3.06508040 0.49123603 0.37634522
3.13093257 -0.08006963 0.05405882
3.09378982 0.49368358 0.16237231
3.11743689 0.49638245 -0.05449514
3.03707123 -0.09455748 0.69288743
2.99711084 0.47264349 0.80258620
3.06329250 -0.09433864 0.47933394
3.03128624 0.47325605 0.58907038
3.10173583 -0.09555287 0.26843968
3.05788684 0.47311306 0.37512824
3.13047028 -0.09646198 0.05405882
3.09148169 0.47617000 0.16211061
3.11760688 0.47912499 -0.05445150
3.03448415 -0.09924679 0.69232541
2.99554586 0.46703616 0.80193996
3.06559134 -0.09976682 0.47972459
3.02725792 0.46720874 0.58811718
3.10156465 -0.10096627 0.26843968
3.05380273 0.46701774 0.37451977
3.13029695 -0.10192553 0.05405882
3.09477568 0.47115299 0.16224146
3.12090921 0.47406197 -0.05449514
3.03879166 -0.11532177 0.69344938
3.00025845 0.45223206 0.80258620
3.06011200 -0.11509310 0.47894326
3.02715707 0.45151475 0.58764058
3.09852505 -0.11656818 0.26822180
3.05612755 0.45155510 0.37451977
3.12474608 -0.11757700 0.05397156
3.08724284 0.45401558 0.16171810
3.11090517 0.45642740 -0.05427698
3.04347467 -0.12029046 0.69457322
2.99626684 0.44627601 0.80129373
3.06237388 -0.12053251 0.47933394
3.02308559 0.44550771 0.58668739
3.10578227 -0.12227448 0.26887548
3.06182098 0.44694468 0.37512824
3.12703347 -0.12313040 0.05401520
3.08803058 0.44862661 0.16171810
3.11417055 0.45135924 -0.05432061
3.04764628 -0.13697727 0.69569719
3.00334263 0.43127540 0.80258620
3.07156754 -0.13701166 0.48089653
3.03509378 0.43106791 0.58859378
3.10261178 -0.13842204 0.26865759
3.05920553 0.43020853 0.37451977
3.12884283 -0.13961469 0.05405882
3.09528112 0.43315089 0.16197978
3.11649108 0.43504742 -0.05432061
2.99691892 0.42500460 0.80064750
3.09105659 -0.14329946 0.48402178
3.02862620 0.42420787 0.58716398
3.05749464 0.42452365 0.37421554
3.14355016 -0.14632788 0.05432061
3.08861446 0.42671204 0.16158725
3.11477017 0.42926258 -0.05427698
3.00395942 0.40944329 0.80193996
3.03080583 0.40834427 0.58716398
3.06466508 0.40863815 0.37482399
3.09087801 0.40999481 0.16158725
3.12200212 0.41306674 -0.05436425
2.99988341 0.40354839 0.80064750
3.02421713 0.40207252 0.58573419
3.06284332 0.40349585 0.37451977
3.09399343 0.40546724 0.16171810
3.11528373 0.40663582 -0.05423335
