3.44891191 -0.37941432 0.79235297
3.44922853 -0.39834994 0.79291493
3.45429325 -0.39773428 0.54457337
3.47127700 -0.39970547 0.30264831
3.45101810 -0.40405214 0.79347688
3.44868970 -0.40318638 0.54379207
3.45325994 -0.40372941 0.30112308
3.44643736 -0.42181867 0.79291493
3.44660449 -0.42063653 0.54379207
3.45117211 -0.42120269 0.30112308
3.44577026 -0.42723179 0.79291493
3.43851376 -0.42573696 0.54262006
3.44301748 -0.42630330 0.30046943
3.43857718 -0.44524056 0.79179108
3.43623734 -0.44373506 0.54262006
3.44073820 -0.44432497 0.30046943
3.43779492 -0.45124134 0.79179108
3.43056154 -0.44908804 0.54183877
3.44489598 -0.45097879 0.30090520
3.43771625 -0.47016630 0.79235297
3.43297434 -0.46831271 0.54262006
3.43253589 -0.46825880 0.30003363
3.43456078 -0.47523049 0.79179108
3.43467999 -0.47404361 0.54301071
3.44158053 -0.47561818 0.30090520
3.43202567 -0.49320722 0.79179108
3.43948340 -0.49307626 0.54418266
3.43419909 -0.49232191 0.30046943
3.42874885 -0.49884439 0.79122907
3.42884350 -0.49765438 0.54262006
3.43579888 -0.49867395 0.30068731
3.41636562 -0.51592779 0.78898126
3.42854238 -0.51656812 0.54301071
3.43305063 -0.51725608 0.30068731
3.42036676 -0.52203143 0.79010516
3.42772675 -0.52195305 0.54301071
3.43706608 -0.52400047 0.30112308
3.42239857 -0.54069614 0.79122907
3.42250776 -0.53950745 0.54262006
3.42699027 -0.54022282 0.30046943
3.41423345 -0.54551136 0.78954321
3.41180801 -0.54391956 0.54105747
3.42358327 -0.54580975 0.30025154
3.41603851 -0.56477356 0.79066712
3.41368771 -0.56317782 0.54183877
3.42795086 -0.56554526 0.30090520
3.41274476 -0.56973630 0.79010516
3.40549231 -0.56731796 0.54066682
3.41222119 -0.56906104 0.29959786
3.41931653 -0.58925766 0.79235297
3.39760852 -0.58430141 0.53988552
3.41175103 -0.58674794 0.29981574
3.41358733 -0.59379041 0.79122907
3.40144873 -0.59107870 0.54066682
3.40826845 -0.59227395 0.29959786
3.41511941 -0.61311442 0.79235297
3.40073729 -0.60931730 0.54105747
3.40757179 -0.61055201 0.29981574
3.40685391 -0.61776608 0.79066712
3.39966846 -0.61525178 0.54105747
3.40160012 -0.61560863 0.29937997
3.40346169 -0.63618982 0.79066712
3.39386320 -0.63318247 0.54066682
3.40311551 -0.63492024 0.29981574
3.39767098 -0.64062977 0.78954321
3.39286447 -0.63851273 0.54066682
3.40200210 -0.64085877 0.29981574
3.39426994 -0.65841103 0.78954321
3.38705063 -0.65579814 0.54027617
3.39627028 -0.65759486 0.29959786
3.39311576 -0.66433418 0.78954321
3.39074683 -0.66265863 0.54105747
3.38778496 -0.66208422 0.29894418
3.37753320 -0.68027121 0.78673345
3.38711190 -0.68099457 0.54105747
3.38415313 -0.68040419 0.29894418
3.38362122 -0.68703407 0.78841931
3.37623954 -0.68493599 0.53949481
3.38296032 -0.68630964 0.29894418
3.37759304 -0.70424259 0.78785735
3.36789536 -0.70100671 0.53871351
3.38431978 -0.70444119 0.29937997
3.37874269 -0.71063924 0.78841931
3.37149930 -0.70790124 0.53949481
3.37333679 -0.70829433 0.29850841
3.37246704 -0.72839391 0.78785735
3.36761975 -0.72613239 0.53949481
3.37188935 -0.72706175 0.29872632
3.37369895 -0.73420984 0.78841931
3.36647511 -0.73142129 0.53949481
3.37548208 -0.73400676 0.29916209
3.36505342 -0.75080067 0.78729540
3.36500907 -0.74957627 0.53988552
3.37415433 -0.75162500 0.29937997
3.36149406 -0.75555003 0.78673345
3.36610460 -0.75599062 0.54027617
3.36554837 -0.75587159 0.29872632
3.36210370 -0.77482307 0.78785735
3.35728788 -0.77249497 0.53949481
3.36882448 -0.77516258 0.29937997
3.36786366 -0.78234744 0.78954321
3.35593486 -0.77835333 0.53949481
3.36504102 -0.78047705 0.29916209
3.36832070 -0.80168861 0.79066712
3.35647845 -0.79764372 0.54027617
3.35834599 -0.79809493 0.29894418
3.36231995 -0.80584037 0.78954321
3.35282040 -0.80233902 0.53988552
3.36179137 -0.80511796 0.29937997
3.35332370 -0.82227135 0.78841931
3.34617519 -0.81929475 0.53949481
3.36009216 -0.82271683 0.29959786
3.35424757 -0.82870841 0.78898126
3.34953403 -0.82631922 0.54027617
3.35381579 -0.82738423 0.29916209
3.35679889 -0.84863955 0.79066712
3.33783269 -0.84261250 0.53910416
3.34929013 -0.84551793 0.29916209
3.34602022 -0.85150301 0.78841931
3.33874965 -0.84904677 0.53949481
3.34780908 -0.85136223 0.29916209
3.34607840 -0.87082380 0.78954321
3.33425856 -0.86651665 0.53949481
3.34330583 -0.86887962 0.29916209
3.33056951 -0.87236732 0.78617150
3.34244752 -0.87425780 0.54105747
3.34660220 -0.87597746 0.29959786
3.33066177 -0.89105594 0.78729540
3.33543921 -0.89110810 0.54066682
3.34212542 -0.89290482 0.29959786
3.33380532 -0.89813775 0.78841931
3.33149433 -0.89628536 0.54027617
3.33575249 -0.89743984 0.29916209
3.32420015 -0.91486657 0.78729540
3.31945443 -0.91232997 0.53910416
3.33084846 -0.91547477 0.29916209
3.32980108 -0.92204136 0.78898126
3.32753587 -0.92018098 0.54066682
3.33644509 -0.92328340 0.29981574
3.32492781 -0.93946344 0.78898126
3.32267213 -0.93759125 0.54066682
3.33172917 -0.94015878 0.29981574
3.32110524 -0.94401771 0.78841931
3.31628060 -0.94203687 0.53988552
3.33008337 -0.94597232 0.29981574
3.32062697 -0.96333277 0.78954321
3.31367397 -0.96007633 0.54027617
3.32269287 -0.96270120 0.29959786
3.31910992 -0.96854758 0.78954321
3.31436348 -0.96655095 0.54066682
3.32578850 -0.96989602 0.30003363
3.32065177 -0.98916012 0.79122907
3.30671930 -0.98376369 0.54027617
3.45688438 -0.35822639 0.66818500
3.31333232 -0.98574150 0.29937997
3.31442738 -0.99297410 0.79010516
3.31226563 -0.99108422 0.54144812
3.43916702 -0.36248145 0.66484886
3.31876302 -0.99366981 0.30003363
3.31384158 -1.01173997 0.79122907
3.29994631 -1.00624883 0.54027617
3.43972778 -0.38015026 0.66532546
3.31130910 -1.00972712 0.29981574
3.31672716 -1.01895547 0.79235297
3.45259476 -0.38221341 0.92019540
3.30290556 -1.01345801 0.54105747
3.43899179 -0.38675335 0.66532546
3.31430316 -1.01696861 0.30025154
3.45169377 -0.39239839 0.42167699
3.45741081 -0.39546716 0.18055904
3.30884147 -1.03615654 0.79179108
3.44807696 -0.40061259 0.91954917
3.29501772 -1.03057528 0.54066682
3.43935728 -0.40503824 0.66580200
3.30162263 -1.03265154 0.29959786
3.44951987 -0.41106802 0.42167699
3.45274162 -0.41387382 0.18042821
3.30488658 -1.04061973 0.79122907
3.44977140 -0.40690970 0.92019540
3.29103971 -1.03500772 0.54027617
3.44351959 -0.41161650 0.66675520
3.30219030 -1.03916121 0.29981574
3.44887018 -0.41648602 0.42167699
3.45704460 -0.41989240 0.18068987
3.29243445 -1.05567455 0.78954321
3.44047570 -0.42348987 0.91825682
3.28557515 -1.05222511 0.54027617
3.43652058 -0.42843965 0.66580200
3.30163121 -1.05738354 0.30025154
3.44171762 -0.43392420 0.42106855
3.44984436 -0.43736613 0.18042821
3.29309058 -1.06159377 0.79010516
3.43973136 -0.42949399 0.91825682
3.29313350 -1.06099224 0.54183877
3.43576765 -0.43443686 0.66580200
3.29741073 -1.06237936 0.30003363
3.43849301 -0.43961900 0.42076430
3.45155215 -0.44370160 0.18055904
3.28729844 -1.07939541 0.79010516
3.43504000 -0.44718984 0.91761059
3.28753304 -1.07822037 0.54183877
3.43344593 -0.45242041 0.66580200
3.29653525 -1.08118474 0.30046943
3.43614411 -0.45761684 0.42076430
3.44423199 -0.46111169 0.18029736
3.28540993 -1.08513129 0.79010516
3.43664932 -0.45349717 0.91825682
3.28564596 -1.08395648 0.54183877
3.43257093 -0.45901135 0.66580200
3.28991342 -1.08537352 0.30003363
3.43534040 -0.46361333 0.42076430
3.44837070 -0.46778703 0.18055904
3.28641629 -1.10522449 0.79179108
3.42935944 -0.47143316 0.91696435
3.27739286 -1.10093009 0.54144812
3.41796470 -0.47530407 0.66341907
3.29107428 -1.10554075 0.30068731
3.43278146 -0.48219344 0.42076430
3.44084406 -0.48574612 0.18029736
3.28236866 -1.10960388 0.79122907
3.42613864 -0.47708791 0.91631818
3.28267646 -1.10845053 0.54262006
3.42199087 -0.48194683 0.66437227
3.29385757 -1.11287999 0.30112308
3.42710543 -0.48689348 0.42015579
3.43513298 -0.49045110 0.18003568
3.28112006 -1.12836206 0.79235297
3.43324304 -0.49579081 0.91890299
3.27449322 -1.12481987 0.54222941
3.40979218 -0.49785560 0.66246587
3.27876306 -1.12629580 0.30025154
3.43187547 -0.50590694 0.42106855
3.43251777 -0.50843060 0.18003568
3.27914572 -1.13408685 0.79235297
3.42759228 -0.50108993 0.91761059
3.27252483 -1.13053334 0.54222941
3.41611457 -0.50546890 0.66389561
3.27679229 -1.13201666 0.30025154
3.42362285 -0.51080710 0.42015579
3.42915583 -0.51405388 0.17990485
3.27296162 -1.15181208 0.79235297
3.42960739 -0.52034569 0.91890299
3.26868916 -1.14904284 0.54262006
3.40614247 -0.52224267 0.66246587
3.28001571 -1.15303802 0.30112308
3.42326188 -0.52969933 0.42046005
3.43372655 -0.53374040 0.18029736
3.43346906 -0.52705711 0.92019540
3.26920795 -1.15499973 0.54301071
3.40522575 -0.52818662 0.66246587
3.27799869 -1.15876114 0.30112308
3.42242575 -0.53507596 0.42046005
3.42301655 -0.53759712 0.17977400
3.43314314 -0.54480392 0.92084163
3.40250874 -0.54541522 0.66246587
3.29318237 -1.18292654 0.30308411
3.41957688 -0.55298829 0.42046005
3.42261958 -0.55590951 0.17990485
3.42026162 -0.54889780 0.91761059
3.40155172 -0.55135292 0.66246587
3.41860676 -0.55895573 0.42046005
3.42164397 -0.56188226 0.17990485
3.42448997 -0.56797439 0.91954917
3.40588093 -0.57036203 0.66389561
3.41073823 -0.57602781 0.41985154
3.41373134 -0.57896173 0.17964315
3.41396427 -0.57236600 0.91696435
3.40488029 -0.57630551 0.66389561
3.40483475 -0.58115131 0.41924307
3.41025472 -0.58450043 0.17951232
3.41092062 -0.59023356 0.91696435
3.40181613 -0.59412545 0.66389561
3.40907836 -0.60025209 0.42015579
3.41698313 -0.60407394 0.18003568
3.40274668 -0.59494770 0.91502577
3.39110446 -0.59836900 0.66198927
3.40069461 -0.60490721 0.41924307
3.41100740 -0.60916537 0.17977400
3.39720750 -0.61233103 0.91437954
3.38550997 -0.61568063 0.66151267
3.40236330 -0.62359297 0.41985154
3.41022682 -0.62746555 0.17990485
3.39613342 -0.61825925 0.91437954
3.38925886 -0.62246871 0.66246587
3.39638853 -0.62863362 0.41924307
3.40667176 -0.63296372 0.17977400
3.39511323 -0.63706720 0.91502577
3.39066553 -0.64170337 0.66341907
3.39781404 -0.64792365 0.41985154
3.40319705 -0.65138620 0.17977400
3.38924885 -0.64209920 0.91373336
3.37989545 -0.64579093 0.66151267
3.39191699 -0.65232933 0.41924307
3.39236164 -0.65485132 0.17925064
3.38832688 -0.65970373 0.91437954
3.38381004 -0.66429836 0.66294247
3.39332509 -0.67103660 0.41985154
3.39868426 -0.67453581 0.17977400
3.38954067 -0.66607893 0.91502577
3.38012075 -0.67031944 0.66246587
3.39214873 -0.67695802 0.41985154
3.39505291 -0.67997950 0.17964315
3.39062262 -0.68535882 0.91631818
3.38378048 -0.68946868 0.66389561
3.37871051 -0.69331908 0.41863459
3.38643289 -0.69733793 0.17938149
3.38942146 -0.69127554 0.91631818
3.37535834 -0.69390059 0.66246587
3.38004804 -0.69912487 0.41893885
3.38777804 -0.70316052 0.17951232
3.38824391 -0.70891345 0.91696435
3.37900925 -0.71248513 0.66389561
3.37391305 -0.71630096 0.41863459
3.38160753 -0.72037226 0.17938149
3.39409208 -0.71631247 0.91890299
3.38256288 -0.71939623 0.66484886
3.37265778 -0.72218853 0.41863459
3.38034534 -0.72627318 0.17938149
3.38085103 -0.73204243 0.91631818
3.36915588 -0.73501784 0.66294247
3.37610364 -0.74142492 0.41954732
3.37405729 -0.74342859 0.17925064
3.38664865 -0.73947805 0.91825682
3.37493086 -0.74305826 0.66437227
3.37722731 -0.74784940 0.41985154
3.37031698 -0.74877810 0.17911980
3.37316871 -0.75569153 0.91567200
3.36859918 -0.76018202 0.66389561
3.36587048 -0.76447183 0.41893885
3.37595582 -0.76920784 0.17964315
3.36948824 -0.76104885 0.91502577
3.35769248 -0.76389533 0.66198927
3.36466527 -0.76975793 0.41893885
3.37230945 -0.77395463 0.17951232
3.36559319 -0.77809358 0.91502577
3.35617423 -0.78143364 0.66246587
3.36542249 -0.78849036 0.41954732
3.37064171 -0.79216921 0.17964315
3.35952449 -0.78287661 0.91373336
3.34988785 -0.78675979 0.66151267
3.36404109 -0.79436296 0.41954732
3.36439395 -0.79690647 0.17938149
3.34819031 -0.79936892 0.91179472
3.34094858 -0.80314803 0.66055948
3.35728121 -0.81197232 0.41924307
3.35760617 -0.81451255 0.17925064
3.34679008 -0.80521148 0.91179472
3.34192801 -0.80955249 0.66103607
3.35841346 -0.81782883 0.41954732
3.36360073 -0.82155311 0.17964315
3.35205507 -0.82443511 0.91437954
3.34731936 -0.82880360 0.66294247
3.35167646 -0.83480567 0.41924307
3.35198402 -0.83734792 0.17925064
3.34357643 -0.82855117 0.91244096
3.34110403 -0.83346289 0.66198927
3.35021448 -0.84065413 0.41924307
3.35536122 -0.84440917 0.17951232
3.34153438 -0.84663671 0.91308719
3.33669400 -0.85094535 0.66198927
3.34576702 -0.85818422 0.41924307
3.34847546 -0.86134744 0.17938149
3.34941483 -0.85484362 0.91567200
3.33282590 -0.85616028 0.66151267
3.34426379 -0.86402231 0.41924307
3.34454942 -0.86656725 0.17925064
3.33554220 -0.86994416 0.91308719
3.33542132 -0.87545872 0.66294247
3.33729410 -0.88089079 0.41893885
3.34720922 -0.88597423 0.17964315
3.34570169 -0.87881637 0.91631818
3.33388829 -0.88127881 0.66294247
3.34054971 -0.88798273 0.41954732
3.34807086 -0.89245474 0.17977400
3.34338832 -0.89694482 0.91696435
3.32448769 -0.89744991 0.66198927
3.33585429 -0.90546161 0.41954732
3.33853245 -0.90866786 0.17951232
3.34881449 -0.90465891 0.91890299
3.32291627 -0.90325087 0.66198927
3.33905768 -0.91258436 0.42015579
3.33453274 -0.91383672 0.17938149
3.33921289 -0.92148584 0.91761059
3.31561518 -0.92056292 0.66151267
3.33646226 -0.93130094 0.42046005
3.33434963 -0.93320417 0.17964315
3.34691072 -0.92988592 0.92019540
3.31873226 -0.92766339 0.66246587
3.33021545 -0.93520522 0.41985154
3.33287978 -0.93844056 0.17964315
3.33518791 -0.94484878 0.91825682
3.31163311 -0.94377953 0.66198927
3.32527304 -0.95262933 0.41985154
3.32552028 -0.95519257 0.17951232
3.33121037 -0.95000911 0.91761059
3.31689477 -0.95215768 0.66341907
3.32122040 -0.95774716 0.41954732
3.32384777 -0.96099520 0.17951232
3.31674266 -0.96533167 0.91502577
3.30715156 -0.96813911 0.66246587
3.31122708 -0.97430801 0.41893885
3.31859970 -0.97896487 0.17951232
3.32200837 -0.97314644 0.91696435
3.31487679 -0.97667152 0.66437227
3.31445313 -0.98091012 0.41954732
3.32424092 -0.98629737 0.17990485
3.31240988 -0.98857301 0.91567200
3.30753946 -0.99273461 0.66389561
3.30927181 -0.99825102 0.41954732
3.31424999 -1.00225043 0.17964315
3.31067967 -0.99435282 0.91567200
3.31502795 -1.00191021 0.66580200
3.30277348 -1.00259006 0.41893885
3.31488514 -1.00875711 0.17977400
3.30756140 -1.01295459 0.91631818
3.30739021 -1.01853478 0.66532546
3.30441499 -1.02263629 0.41985154
3.31414938 -1.02815056 0.18003568
3.30578828 -1.01872587 0.91631818
3.30091739 -1.02285922 0.66437227
3.30280471 -1.02782571 0.41985154
3.31253028 -1.03335512 0.18003568
3.30058980 -1.03544486 0.91631818
3.29803920 -1.04028857 0.66484886
3.30684352 -1.04809129 0.42106855
3.30469418 -1.04993260 0.17990485
3.29416966 -1.03975642 0.91502577
3.29153824 -1.04456472 0.66389561
3.29554868 -1.05085838 0.41985154
3.30047774 -1.05494177 0.17977400
3.29328060 -1.05846190 0.91631818
3.29536867 -1.06479061 0.66580200
3.29944587 -1.07115173 0.42106855
3.30440879 -1.07528603 0.18029736
3.29142809 -1.06420815 0.91631818
3.28164434 -1.06733561 0.66341907
3.29285169 -1.07537425 0.42046005
3.29777932 -1.07950461 0.18003568
3.28332734 -1.08124864 0.91567200
3.28067255 -1.08603990 0.66437227
3.28934073 -1.09395444 0.42076430
3.29899931 -1.09969068 0.18042821
3.29060960 -1.09000266 0.91825682
3.28110147 -1.09253633 0.66484886
3.28526402 -1.09833646 0.42046005
3.29253125 -1.10329115 0.18016651
3.28276062 -1.10587597 0.91761059
3.27087855 -1.10756123 0.66389561
3.28181839 -1.11631882 0.42076430
3.28434515 -1.11971307 0.18003568
3.28769064 -1.11391950 0.91954917
3.27339411 -1.11541593 0.66484886
3.28456283 -1.12364507 0.42137274
3.28947401 -1.12786353 0.18042821
3.27476311 -1.12933838 0.91761059
3.27678871 -1.13574243 0.66675520
3.27374649 -1.13977420 0.42076430
3.27860689 -1.14400578 0.18016651
3.28191829 -1.13820517 0.92019540
3.27016449 -1.13985038 0.66580200
3.27195191 -1.14491522 0.42076430
3.27680564 -1.14915442 0.18016651
3.27611518 -1.15480185 0.92019540
3.26435328 -1.15638757 0.66580200
3.26591206 -1.16203129 0.42076430
3.27780223 -1.16880226 0.18055904
3.27369094 -1.16675663 0.66818500
