3.79541898 0.47687745 -0.33096600
3.77527118 0.47696882 -0.59653050
3.76079655 0.47775379 -0.86653072
3.80613041 0.47148898 -0.33183581
3.77609777 0.47037902 -0.59653050
3.75429225 0.47092727 -0.86484486
3.79865575 0.45036900 -0.33096600
3.78096056 0.45089641 -0.59692115
3.75912452 0.45155698 -0.86540681
3.79943609 0.44373843 -0.33096600
3.77683759 0.44371456 -0.59613985
3.75506949 0.44441682 -0.86428291
3.80913210 0.42467541 -0.33161837
3.78156281 0.42421132 -0.59653050
3.75741935 0.42409357 -0.86428291
3.80491638 0.41747737 -0.33118346
3.77984333 0.41733664 -0.59613985
3.76050138 0.41846326 -0.86484486
3.80202770 0.39768961 -0.33074856
3.77706599 0.39701760 -0.59535855
3.76748538 0.39928707 -0.86596876
3.81014729 0.39182639 -0.33140093
3.78757668 0.39145204 -0.59692115
3.76333117 0.39220002 -0.86484486
3.80477643 0.37047288 -0.33074856
3.78465962 0.37112719 -0.59613985
3.77018094 0.37297559 -0.86596876
3.80541706 0.36383176 -0.33074856
3.78284431 0.36428145 -0.59574920
3.76112890 0.36544058 -0.86372095
3.81719041 0.34480983 -0.33161837
3.78715849 0.34469643 -0.59613985
3.76305103 0.34508562 -0.86372095
3.81530571 0.33792433 -0.33140093
3.78529549 0.33786356 -0.59574920
3.76601458 0.33939585 -0.86428291
3.81454110 0.31773320 -0.33118346
3.79193306 0.31845850 -0.59653050
3.76045871 0.31904569 -0.86259705
3.82005429 0.31148586 -0.33161837
3.78510118 0.31122386 -0.59535855
3.75858212 0.31227729 -0.86203504
3.81914926 0.29128751 -0.33140093
3.79160190 0.29178584 -0.59613985
3.76264524 0.29212850 -0.86259705
3.81716824 0.28443336 -0.33118346
3.78964353 0.28497964 -0.59574920
3.76795721 0.28659326 -0.86372095
3.81607485 0.26493391 -0.33096600
3.79354668 0.26530856 -0.59613985
3.76697659 0.26668543 -0.86315900
3.81901598 0.25844434 -0.33118346
3.78907728 0.25834528 -0.59535855
3.77715635 0.26079351 -0.86540681
3.82528806 0.23876083 -0.33161837
3.79284239 0.23866031 -0.59574920
3.77603912 0.24085483 -0.86484486
3.82072735 0.23177649 -0.33118346
3.79325294 0.23204018 -0.59574920
3.78617835 0.23487927 -0.86709261
3.82437515 0.21190889 -0.33140093
3.79195094 0.21203482 -0.59535855
3.78249240 0.21476960 -0.86596876
3.82473898 0.20523378 -0.33140093
3.79971123 0.20582594 -0.59653050
3.77799702 0.20789392 -0.86484486
3.82579350 0.18453704 -0.33140093
3.80073714 0.18592796 -0.59653050
3.77173519 0.18773735 -0.86315900
3.82859755 0.17797813 -0.33161837
3.79612303 0.17905550 -0.59574920
3.77205729 0.18115413 -0.86315900
3.82450008 0.15771809 -0.33118346
3.80440950 0.15949591 -0.59692115
3.77541566 0.16084947 -0.86372095
3.83223510 0.15134659 -0.33183581
3.80714941 0.15295784 -0.59731179
3.78053164 0.15512459 -0.86484486
3.83297515 0.13127908 -0.33183581
3.80789804 0.13302165 -0.59731179
3.78616071 0.13550796 -0.86596876
3.88204479 0.12624720 -0.06719176
3.83319855 0.12458907 -0.33183581
3.80565667 0.12629052 -0.59692115
3.78395677 0.12881377 -0.86540681
3.88267088 0.10524157 -0.06719176
3.83628750 0.10458773 -0.33205327
3.81120205 0.10650644 -0.59770244
3.78703356 0.10841152 -0.86596876
3.87535262 0.09826595 -0.06706087
3.83148551 0.09775899 -0.33161837
3.80397701 0.09965152 -0.59653050
3.78963399 0.10253161 -0.86653072
3.86830282 0.07848889 -0.06692997
3.84189081 0.07858052 -0.33248821
3.80691552 0.07978739 -0.59692115
3.79498982 0.08280005 -0.86765462
3.87093329 0.07178661 -0.06697360
3.83206201 0.07167684 -0.33161837
3.80704856 0.07314295 -0.59692115
3.79512858 0.07617641 -0.86765462
3.87375569 0.05155376 -0.06701723
3.83737421 0.05101459 -0.33205327
3.81478667 0.05332086 -0.59809309
3.78329682 0.05610864 -0.86484486
3.87383962 0.04479271 -0.06701723
3.84492826 0.04441223 -0.33270565
3.81240487 0.04662954 -0.59770244
3.78582478 0.04954033 -0.86540681
3.87152553 0.02381434 -0.06697360
3.84261799 0.02426102 -0.33248821
3.81506610 0.02668754 -0.59809309
3.79334474 0.02912147 -0.86709261
3.86906147 0.01704326 -0.06692997
3.83767319 0.01752567 -0.33205327
3.82498360 0.02009274 -0.59965575
3.78851438 0.02312715 -0.86596876
3.87409782 -0.00253733 -0.06701723
3.84269357 -0.00256588 -0.33248821
3.81515932 0.00005292 -0.59809309
3.79589128 0.00330562 -0.86765462
3.87408733 -0.00929890 -0.06701723
3.84268308 -0.00927264 -0.33248821
3.82256150 -0.00660966 -0.59926504
3.79101968 -0.00332117 -0.86653072
3.87648010 -0.03027607 -0.06706087
3.84756255 -0.02942483 -0.33292308
3.81506658 -0.02658170 -0.59809309
3.78850985 -0.02382008 -0.86596876
3.88142014 -0.03708364 -0.06714813
3.84750533 -0.03614004 -0.33292308
3.81748390 -0.03325874 -0.59848380
3.79821181 -0.02983565 -0.86821657
3.87618423 -0.05666153 -0.06706087
3.85225391 -0.05567954 -0.33335802
3.81725717 -0.05324648 -0.59848380
3.80043912 -0.04975145 -0.86877853
3.88107777 -0.06350257 -0.06714813
3.84966040 -0.06236552 -0.33314055
3.81715870 -0.05990877 -0.59848380
3.80278230 -0.05641755 -0.86934042
3.88317657 -0.08455166 -0.06719176
3.84677672 -0.08314233 -0.33292308
3.81926131 -0.07994315 -0.59887445
3.79998612 -0.07694532 -0.86877853
3.84662604 -0.08985608 -0.33292308
3.82652211 -0.08676791 -0.60004640
3.80229592 -0.08296438 -0.86934042
3.82107854 -0.10667039 -0.59926504
3.80180931 -0.10287193 -0.86934042
3.83322763 -0.11369046 -0.60121834
3.80649400 -0.10964152 -0.87046438
3.80586791 -0.12957069 -0.87046438
3.80091619 0.68515468 -0.20057754
3.77596164 0.67863435 -0.46609607
3.80948019 0.67983192 -0.20097007
3.77946639 0.67313623 -0.46640033
3.75085378 0.66536635 -0.73300183
3.81287217 0.66054177 -0.20097007
3.77804804 0.65249562 -0.46579182
3.74207950 0.64429712 -0.73061883
3.71924186 0.63706064 -1.00032473
3.81647992 0.65430671 -0.20110090
3.78162742 0.64631754 -0.46609607
3.74561763 0.63817590 -0.73109537
3.72272968 0.63097072 -1.00097096
3.81257463 0.63242608 -0.20070837
3.78251147 0.62610418 -0.46579182
3.74648619 0.61815697 -0.73061883
3.71644855 0.60991055 -0.99838614
3.80874515 0.62496489 -0.20044671
3.77870011 0.61870205 -0.46518338
3.75240421 0.61240530 -0.73157203
3.72238111 0.60354489 -0.99967855
3.81689668 0.60579413 -0.20070837
3.78934598 0.59940779 -0.46609607
3.75081372 0.59133208 -0.73061883
3.71833181 0.58292800 -0.99773997
3.81054902 0.59797400 -0.20031586
3.78783107 0.59307218 -0.46579182
3.75426507 0.58516151 -0.73109537
3.72173047 0.57680601 -0.99838614
3.81362772 0.57801396 -0.20031586
3.78597689 0.57249153 -0.46518338
3.74747086 0.56469423 -0.72918904
3.71982479 0.55724823 -0.99709374
3.81709981 0.57172561 -0.20044671
3.78697038 0.56588286 -0.46518338
3.76058888 0.55995387 -0.73157203
3.72088790 0.55010569 -0.99709374
3.82251239 0.55208731 -0.20057754
3.78997660 0.54538524 -0.46518338
3.76356363 0.53959900 -0.73157203
3.72849965 0.53129464 -0.99838614
3.82347012 0.54541487 -0.20057754
3.79328537 0.53977966 -0.46548760
3.76449943 0.53302962 -0.73157203
3.72463775 0.52411580 -0.99709374
3.81628752 0.52470034 -0.20005418
3.79114223 0.51923972 -0.46487913
3.76228547 0.51330793 -0.73061883
3.73442292 0.50622660 -0.99903238
3.81719756 0.51803887 -0.20005418
3.79696131 0.51328450 -0.46548760
3.76804042 0.50739330 -0.73157203
3.73051262 0.49907005 -0.99773997
3.82242036 0.49769944 -0.20018502
3.79229975 0.49177989 -0.46457487
3.76099420 0.48574647 -0.72966564
3.73315835 0.47887880 -0.99773997
3.82080698 0.49071056 -0.20005418
3.79060602 0.48550838 -0.46427062
3.76913977 0.48010811 -0.73109537
3.72919655 0.47175881 -0.99644756
3.82324147 0.47136548 -0.20005418
3.79802227 0.46625650 -0.46487913
3.76421332 0.46013513 -0.72966564
3.72674131 0.45229828 -0.99515516
3.82653666 0.46499190 -0.20018502
3.80129409 0.45992380 -0.46518338
3.76744747 0.45385695 -0.73014224
3.72992301 0.44607872 -0.99580133
3.83395696 0.44485465 -0.20044671
3.79871988 0.43944627 -0.46457487
3.76489568 0.43356544 -0.72918904
3.73220754 0.42654288 -0.99580133
3.82232451 0.43675151 -0.19979250
3.79701543 0.43253595 -0.46427062
3.76808524 0.42726904 -0.72966564
3.74021959 0.42018184 -0.99773997
3.82952309 0.41727039 -0.20005418
3.79683304 0.41171962 -0.46396640
3.76546192 0.40635151 -0.72871244
3.73276281 0.39956927 -0.99515516
3.83272767 0.41085082 -0.20018502
3.80487752 0.40654224 -0.46487913
3.76860547 0.40003666 -0.72918904
3.73345470 0.39305377 -0.99515516
3.83234262 0.39052531 -0.20005418
3.80201626 0.38611552 -0.46427062
3.76814055 0.38071159 -0.72871244
3.74500847 0.37510985 -0.99773997
3.83301854 0.38383600 -0.20005418
3.80021524 0.37923405 -0.46396640
3.76635695 0.37389314 -0.72823584
3.73851132 0.36721477 -0.99580133
3.82751894 0.36305764 -0.19966166
3.80468178 0.35889921 -0.46427062
3.77565527 0.35419372 -0.72966564
3.73557281 0.34719056 -0.99450892
3.82814693 0.35637683 -0.19966166
3.79782820 0.35223866 -0.46335793
3.77382374 0.34737971 -0.72918904
3.74579406 0.34154239 -0.99709374
3.82996035 0.33632788 -0.19966166
3.80950880 0.33320841 -0.46457487
3.77797866 0.32848567 -0.72966564
3.74506855 0.32237309 -0.99644756
3.83551669 0.33006850 -0.19992335
3.80761218 0.32634839 -0.46427062
3.77610064 0.32168427 -0.72918904
3.74086714 0.31477997 -0.99515516
3.83470368 0.30978155 -0.19979250
3.80932212 0.30574256 -0.46427062
3.78023267 0.30144283 -0.72966564
3.75209451 0.29594320 -0.99773997
3.84519434 0.30387005 -0.20031586
3.80732393 0.29956517 -0.46396640
3.77341247 0.29427594 -0.72823584
3.75019741 0.28920966 -0.99709374
3.84419274 0.28422111 -0.20018502
3.81131482 0.27980644 -0.46427062
3.78219676 0.27570480 -0.72966564
3.74920464 0.27005234 -0.99644756
3.83721256 0.27697581 -0.19979250
3.80932236 0.27297792 -0.46396640
3.77532816 0.26858455 -0.72823584
3.75207925 0.26367638 -0.99709374
3.84363747 0.25654057 -0.20005418
3.81069970 0.25302869 -0.46396640
3.78402948 0.24929360 -0.72966564
3.75340843 0.24402700 -0.99709374
3.83909655 0.24951042 -0.19979250
3.81608796 0.24669506 -0.46457487
3.78445888 0.24268886 -0.72966564
3.75387001 0.23682053 -0.99709374
3.84533477 0.22970089 -0.20005418
3.81736684 0.22604452 -0.46457487
3.78571653 0.22220950 -0.72966564
3.75746942 0.21730034 -0.99773997
3.84572983 0.22298917 -0.20005418
3.81028533 0.21962331 -0.46366215
3.78854895 0.21574013 -0.73014224
3.75543165 0.21060804 -0.99709374
3.85179543 0.20378274 -0.20031586
3.82129526 0.20018408 -0.46487913
3.78469014 0.19631012 -0.72918904
3.75886154 0.19171920 -0.99773997
3.84715843 0.19680716 -0.20005418
3.81916046 0.19339010 -0.46457487
3.78747821 0.18982591 -0.72966564
3.75919032 0.18515846 -0.99773997
3.84813619 0.17666088 -0.20005418
3.82259941 0.17350173 -0.46487913
3.79087234 0.17010097 -0.73014224
3.76010823 0.16547295 -0.99773997
3.85592127 0.17027105 -0.20044671
3.82537580 0.16693673 -0.46518338
3.79116344 0.16348439 -0.73014224
3.75797868 0.15880936 -0.99709374
3.84927583 0.14979173 -0.20005418
3.82123804 0.14671698 -0.46457487
3.78951478 0.14354011 -0.72966564
3.76599884 0.13939478 -0.99903238
3.85701609 0.14334771 -0.20044671
3.81900835 0.13995782 -0.46427062
3.79466486 0.13710065 -0.73061883
3.75899577 0.13257007 -0.99709374
3.85024905 0.12224329 -0.20005418
3.82712960 0.12018964 -0.46518338
3.79042435 0.11708102 -0.72966564
3.76688051 0.11309997 -0.99903238
3.86293387 0.11589130 -0.20070837
3.81989241 0.11329291 -0.46427062
3.80043578 0.11074625 -0.73157203
3.76709056 0.10586788 -0.99903238
3.85600019 0.09548185 -0.20031586
3.82789159 0.09280043 -0.46518338
3.79361868 0.09001150 -0.73014224
3.76517868 0.08608812 -0.99838614
3.85116911 0.08863930 -0.20005418
3.82059026 0.08662248 -0.46427062
3.79622364 0.08344294 -0.73061883
3.76049399 0.07941704 -0.99709374
3.84908462 0.06843037 -0.19992335
3.82099152 0.06661683 -0.46427062
3.79414368 0.06418727 -0.73014224
3.77050686 0.06053258 -0.99967855
3.85169411 0.06175113 -0.20005418
3.82606435 0.06002320 -0.46487913
3.79670382 0.05760113 -0.73061883
3.77061605 0.05329362 -0.99967855
3.85695791 0.04163437 -0.20031586
3.82633305 0.03932142 -0.46487913
3.79695988 0.03705824 -0.73061883
3.77084351 0.03355008 -0.99967855
3.86451340 0.03496670 -0.20070837
3.82887149 0.03333134 -0.46518338
3.79211068 0.03039441 -0.72966564
3.76848173 0.02695266 -0.99903238
3.85964823 0.01538884 -0.20044671
3.82651210 0.01327569 -0.46487913
3.80203247 0.01122449 -0.73157203
3.76615429 0.00787460 -0.99838614
3.86216569 0.00865682 -0.20057754
3.83149219 0.00660321 -0.46548760
3.80450034 0.00459039 -0.73204863
3.77340770 0.00130015 -1.00032473
3.86964798 -0.01159160 -0.20097007
3.83643723 -0.01347836 -0.46609607
3.80938077 -0.01535217 -0.73300183
3.77577782 -0.01847036 -1.00097096
3.86712527 -0.01833232 -0.20083922
3.84137034 -0.02020276 -0.46670455
3.78845787 0.68655854 -0.33314055
3.80443954 -0.02196993 -0.73204863
3.78056955 -0.02509487 -1.00226331
3.86947274 -0.03860634 -0.20097007
3.83873105 -0.04028848 -0.46640033
3.78709602 0.66584450 -0.33270565
3.80672646 -0.04191780 -0.73252523
3.75962043 0.66297936 -0.59848380
3.77555680 -0.04482960 -1.00097096
3.87189579 -0.04539028 -0.20110090
3.83369207 -0.04692503 -0.46579182
3.78579950 0.65880394 -0.33248821
3.80419350 -0.04852917 -0.73204863
3.77788758 -0.05145326 -1.00161719
3.73640060 0.65545672 -0.86709261
3.87159324 -0.06633849 -0.20110090
3.83835602 -0.06708667 -0.46640033
3.79176354 0.63872784 -0.33270565
3.80388713 -0.06844712 -0.73204863
3.76172304 0.63630152 -0.59809309
3.77515197 -0.07118665 -1.00097096
3.73738074 0.63547289 -0.86653072
3.84567595 -0.07393257 -0.46731305
3.79287243 0.63210899 -0.33270565
3.81112313 -0.07523511 -0.73347837
3.76769757 0.63055617 -0.59887445
3.78225160 -0.07858855 -1.00290954
3.74088550 0.62935597 -0.86709261
3.87353206 -0.09342691 -0.20123175
3.84025812 -0.09461378 -0.46670455
3.79613042 0.61224103 -0.33270565
3.80330014 -0.09566519 -0.73204863
3.76607370 0.61002439 -0.59809309
3.77454591 -0.09819902 -1.00097096
3.73702431 0.60792440 -0.86540681
3.84010482 -0.10064593 -0.46670455
3.79473448 0.60521942 -0.33248821
3.81294036 -0.10257201 -0.73395497
3.76957059 0.60384393 -0.59848380
3.78402472 -0.10505979 -1.00355577
3.74037910 0.60244393 -0.86596876
3.79282713 0.58523929 -0.33205327
3.81482506 -0.12194930 -0.73443156
3.76536131 0.58295614 -0.59731179
3.78827214 -0.12437201 -1.00484812
3.74107575 0.58247346 -0.86540681
3.79384279 0.57861871 -0.33205327
3.76881337 0.57675993 -0.59770244
3.78804922 -0.13098359 -1.00484812
3.74208641 0.57594317 -0.86540681
3.79938126 0.55844885 -0.33227074
3.76933932 0.55665499 -0.59731179
3.74032974 0.55496722 -0.86428291
3.80035043 0.55181676 -0.33227074
3.77274776 0.55043483 -0.59770244
3.75083590 0.55051816 -0.86653072
3.79825521 0.53121495 -0.33183581
3.77068830 0.52998000 -0.59692115
3.75125527 0.53052723 -0.86596876
3.79917669 0.52458489 -0.33183581
3.77160788 0.52339810 -0.59692115
3.75217533 0.52397925 -0.86596876
3.80433965 0.50501603 -0.33205327
3.77674413 0.50397253 -0.59731179
3.75737000 0.50399727 -0.86653072
3.79533935 0.49706998 -0.33118346
3.77516985 0.49705476 -0.59692115
3.75091314 0.49712548 -0.86484486
